18.859375 3.241455 -3.143229 0 255 0
7.269531 1.306244 -1.211589 0 255 0
7.281250 1.365234 -1.213542 0 255 0
7.292969 1.424408 -1.215495 0 255 0
7.304688 1.483765 -1.217448 0 255 0
18.968750 4.001221 -3.161458 0 255 0
16.312500 3.568359 -2.718750 0 255 0
19.031250 4.311768 -3.171875 0 255 0
19.062500 4.467773 -3.177083 0 255 0
19.093750 4.624268 -3.182292 0 255 0
16.265625 4.066406 -2.710938 0 255 0
19.171875 4.942749 -3.195312 0 255 0
19.203125 5.100830 -3.200521 0 255 0
19.250000 5.263672 -3.208333 0 255 0
8.531250 2.399414 -1.421875 0 255 0
8.265625 2.389282 -1.377604 0 255 0
8.679688 2.576782 -1.446615 0 255 0
19.406250 5.912842 -3.234375 0 255 0
19.453125 6.079102 -3.242188 0 255 0
19.234375 6.161011 -3.205729 0 255 0
7.550781 2.477600 -1.258464 0 255 0
7.550781 2.536591 -1.258464 0 255 0
7.570312 2.602295 -1.261719 0 255 0
7.585938 2.666931 -1.264323 0 255 0
17.312500 6.221680 -2.885417 0 255 0
17.296875 6.351196 -2.882812 0 255 0
17.296875 6.486328 -2.882812 0 255 0
17.390625 6.657349 -2.898438 0 255 0
17.281250 6.750488 -2.880208 0 255 0
17.218750 6.860596 -2.869792 0 255 0
17.218750 6.995117 -2.869792 0 255 0
8.859375 3.668335 -1.476562 0 255 0
8.695312 3.668335 -1.449219 0 255 0
17.500000 7.519531 -2.916667 0 255 0
18.140625 7.936523 -3.023438 0 255 0
14.695312 6.544006 -2.449219 0 255 0
14.484375 6.563232 -2.414062 0 255 0
18.281250 8.426514 -3.046875 0 255 0
18.328125 8.591309 -3.054688 0 255 0
7.988281 3.806915 -1.331380 0 255 0
7.992188 3.871216 -1.332031 0 255 0
8.015625 3.945190 -1.335938 0 255 0
8.039062 4.019531 -1.339844 0 255 0
8.312500 4.221191 -1.385417 0 255 0
8.218750 4.237793 -1.369792 0 255 0
8.117188 4.248840 -1.352865 0 255 0
8.031250 4.266602 -1.338542 0 255 0
7.941406 4.280914 -1.323568 0 255 0
7.851562 4.293823 -1.308594 0 255 0
7.769531 4.309662 -1.294922 0 255 0
7.687500 4.324219 -1.281250 0 255 0
7.656250 4.366455 -1.276042 0 255 0
7.683594 4.442078 -1.280599 0 255 0
7.707031 4.515839 -1.284505 0 255 0
7.734375 4.592285 -1.289062 0 255 0
7.761719 4.669159 -1.293620 0 255 0
7.789062 4.746460 -1.298177 0 255 0
7.816406 4.824188 -1.302734 0 255 0
8.007812 5.004883 -1.334635 0 255 0
8.039062 5.087219 -1.339844 0 255 0
8.070312 5.170044 -1.345052 0 255 0
8.093750 5.248291 -1.348958 0 255 0
8.125000 5.332031 -1.354167 0 255 0
8.156250 5.416260 -1.359375 0 255 0
8.187500 5.500977 -1.364583 0 255 0
8.210938 5.580872 -1.368490 0 255 0
8.242188 5.666504 -1.373698 0 255 0
8.273438 5.752625 -1.378906 0 255 0
8.304688 5.839233 -1.384115 0 255 0
8.335938 5.926331 -1.389323 0 255 0
8.367188 6.013916 -1.394531 0 255 0
8.398438 6.101990 -1.399740 0 255 0
10.179688 7.475708 -1.696615 0 255 0
10.109375 7.503052 -1.684896 0 255 0
8.640625 6.480469 -1.440104 0 255 0
8.664062 6.565735 -1.444010 0 255 0
8.562500 6.555664 -1.427083 0 255 0
8.585938 6.640686 -1.430990 0 255 0
8.617188 6.732178 -1.436198 0 255 0
8.648438 6.824158 -1.441406 0 255 0
8.687500 6.922852 -1.447917 0 255 0
8.718750 7.015869 -1.453125 0 255 0
8.750000 7.109375 -1.458333 0 255 0
8.781250 7.203369 -1.463542 0 255 0
8.820312 7.304321 -1.470052 0 255 0
8.851562 7.399353 -1.475260 0 255 0
8.882812 7.494873 -1.480469 0 255 0
8.921875 7.597534 -1.486979 0 255 0
8.953125 7.694092 -1.492188 0 255 0
8.992188 7.797913 -1.498698 0 255 0
9.156250 8.011719 -1.526042 0 255 0
9.109375 8.041870 -1.518229 0 255 0
9.062500 8.071289 -1.510417 0 255 0
9.023438 8.106995 -1.503906 0 255 0
8.976562 8.135010 -1.496094 0 255 0
8.937500 8.169434 -1.489583 0 255 0
8.898438 8.203247 -1.483073 0 255 0
8.851562 8.229187 -1.475260 0 255 0
8.812500 8.261719 -1.468750 0 255 0
8.773438 8.293640 -1.462240 0 255 0
8.742188 8.332397 -1.457031 0 255 0
8.703125 8.363159 -1.450521 0 255 0
8.664062 8.393311 -1.444010 0 255 0
8.632812 8.430481 -1.438802 0 255 0
8.593750 8.459473 -1.432292 0 255 0
8.562500 8.495605 -1.427083 0 255 0
9.218750 -9.218750 -1.408420 0 255 0
9.257812 -9.185486 -1.414388 0 255 0
9.718750 -9.566895 -1.484809 0 255 0
8.218750 -8.026123 -1.255642 0 255 0
8.203125 -7.946777 -1.253255 0 255 0
8.187500 -7.867676 -1.250868 0 255 0
8.171875 -7.788818 -1.248481 0 255 0
8.148438 -7.702820 -1.244900 0 255 0
8.132812 -7.624512 -1.242513 0 255 0
8.117188 -7.546448 -1.240126 0 255 0
8.101562 -7.468628 -1.237739 0 255 0
8.085938 -7.391052 -1.235352 0 255 0
8.062500 -7.306641 -1.231771 0 255 0
8.046875 -7.229614 -1.229384 0 255 0
8.031250 -7.152832 -1.226997 0 255 0
8.015625 -7.076294 -1.224609 0 255 0
8.000000 -7.000000 -1.222222 0 255 0
7.984375 -6.923950 -1.219835 0 255 0
7.968750 -6.848145 -1.217448 0 255 0
7.953125 -6.772583 -1.215061 0 255 0
7.933594 -6.693970 -1.212077 0 255 0
7.917969 -6.618927 -1.209690 0 255 0
7.937500 -6.573242 -1.212674 0 255 0
8.023438 -6.581726 -1.225803 0 255 0
8.109375 -6.588867 -1.238932 0 255 0
8.195312 -6.594666 -1.252062 0 255 0
8.289062 -6.605347 -1.266385 0 255 0
8.398438 -6.626892 -1.283095 0 255 0
11.507812 -8.990479 -1.758138 0 255 0
11.609375 -8.979126 -1.773655 0 255 0
11.710938 -8.966187 -1.789171 0 255 0
11.820312 -8.957581 -1.805881 0 255 0
11.937500 -8.953125 -1.823785 0 255 0
12.054688 -8.946838 -1.841688 0 255 0
7.699219 -5.654114 -1.176270 0 255 0
7.687500 -5.585449 -1.174479 0 255 0
7.675781 -5.516968 -1.172689 0 255 0
7.667969 -5.451447 -1.171495 0 255 0
7.656250 -5.383301 -1.169705 0 255 0
7.644531 -5.315338 -1.167914 0 255 0
7.632812 -5.247559 -1.166124 0 255 0
7.625000 -5.182617 -1.164931 0 255 0
7.613281 -5.115173 -1.163140 0 255 0
7.605469 -5.050507 -1.161947 0 255 0
7.593750 -4.983398 -1.160156 0 255 0
7.585938 -4.919006 -1.158963 0 255 0
7.574219 -4.852234 -1.157172 0 255 0
7.566406 -4.788116 -1.155979 0 255 0
7.558594 -4.724121 -1.154785 0 255 0
7.546875 -4.657837 -1.152995 0 255 0
7.539062 -4.594116 -1.151801 0 255 0
7.546875 -4.539917 -1.152995 0 255 0
16.828125 -9.991699 -2.570964 0 255 0
11.593750 -6.793213 -1.771267 0 255 0
11.562500 -6.684570 -1.766493 0 255 0
11.531250 -6.576416 -1.761719 0 255 0
11.500000 -6.468750 -1.756944 0 255 0
11.468750 -6.361572 -1.752170 0 255 0
11.437500 -6.254883 -1.747396 0 255 0
7.492188 -4.038757 -1.144640 0 255 0
11.375000 -6.042969 -1.737847 0 255 0
17.265625 -9.037476 -2.637804 0 255 0
17.515625 -9.031494 -2.675998 0 255 0
18.171875 -9.227905 -2.776259 0 255 0
7.757812 -3.878906 -1.185221 0 255 0
18.500000 -9.105469 -2.826389 0 255 0
7.789062 -3.772827 -1.189996 0 255 0
19.296875 -9.196167 -2.948134 0 255 0
7.691406 -3.605347 -1.175076 0 255 0
20.187500 -9.305176 -3.084201 0 255 0
20.312500 -9.204102 -3.103299 0 255 0
20.250000 -9.017578 -3.093750 0 255 0
20.203125 -8.838867 -3.086589 0 255 0
20.140625 -8.654175 -3.077040 0 255 0
20.078125 -8.470459 -3.067491 0 255 0
8.304688 -3.438660 -1.268772 0 255 0
19.890625 -8.080566 -3.038845 0 255 0
10.796875 -4.301880 -1.649523 0 255 0
10.765625 -4.205322 -1.644748 0 255 0
10.742188 -4.112244 -1.641168 0 255 0
8.226562 -3.084961 -1.256836 0 255 0
8.109375 -2.977661 -1.238932 0 255 0
8.023438 -2.883423 -1.225803 0 255 0
7.968750 -2.801514 -1.217448 0 255 0
7.937500 -2.728516 -1.212674 0 255 0
7.914062 -2.658630 -1.209093 0 255 0
7.902344 -2.592957 -1.207303 0 255 0
7.898438 -2.529968 -1.206706 0 255 0
7.902344 -2.469482 -1.207303 0 255 0
7.917969 -2.412506 -1.209690 0 255 0
7.941406 -2.357605 -1.213270 0 255 0
7.980469 -2.306854 -1.219238 0 255 0
7.449219 -2.095093 -1.138075 0 255 0
7.437500 -2.033691 -1.136285 0 255 0
7.421875 -1.971436 -1.133898 0 255 0
19.125000 -4.930664 -2.921875 0 255 0
19.046875 -4.761719 -2.909939 0 255 0
19.046875 -4.612915 -2.909939 0 255 0
8.929688 -2.092896 -1.364258 0 255 0
8.914062 -2.019592 -1.361871 0 255 0
8.898438 -1.946533 -1.359484 0 255 0
18.921875 -3.991333 -2.890842 0 255 0
18.906250 -3.840332 -2.888455 0 255 0
18.875000 -3.686523 -2.883681 0 255 0
18.843750 -3.533203 -2.878906 0 255 0
16.296875 -2.928345 -2.489800 0 255 0
16.140625 -2.774170 -2.465929 0 255 0
16.078125 -2.637817 -2.456380 0 255 0
16.062500 -2.509766 -2.453993 0 255 0
16.093750 -2.388916 -2.458767 0 255 0
16.187500 -2.276367 -2.473090 0 255 0
7.207031 -0.957184 -1.101074 0 255 0
7.199219 -0.899902 -1.099881 0 255 0
7.191406 -0.842743 -1.098687 0 255 0
7.195312 -0.786987 -1.099284 0 255 0
8.710938 -0.884705 -1.330838 0 255 0
8.703125 -0.815918 -1.329644 0 255 0
18.593750 -1.597900 -2.840712 0 255 0
18.593750 -1.452637 -2.840712 0 255 0
18.500000 -1.300781 -2.826389 0 255 0
18.531250 -1.158203 -2.831163 0 255 0
18.593750 -1.016846 -2.840712 0 255 0
18.578125 -0.870850 -2.838325 0 255 0
18.578125 -0.725708 -2.838325 0 255 0
18.578125 -0.580566 -2.838325 0 255 0
18.562500 -0.435059 -2.835938 0 255 0
18.562500 -0.290039 -2.835938 0 255 0
18.562500 -0.145020 -2.835938 0 255 0
18.562500 0.000000 -2.835938 0 255 0
18.562500 0.145020 -2.835938 0 255 0
8.648438 0.135132 -1.321289 0 255 0
7.148438 0.167542 -1.092122 0 255 0
7.152344 0.223511 -1.092719 0 255 0
7.152344 0.279388 -1.092719 0 255 0
7.160156 0.335632 -1.093913 0 255 0
18.593750 1.016846 -2.840712 0 255 0
18.609375 1.163086 -2.843099 0 255 0
18.609375 1.308472 -2.843099 0 255 0
18.625000 1.455078 -2.845486 0 255 0
18.640625 1.601929 -2.847873 0 255 0
18.656250 1.749023 -2.850260 0 255 0
18.671875 1.896362 -2.852648 0 255 0
18.687500 2.043945 -2.855035 0 255 0
18.703125 2.191772 -2.857422 0 255 0
18.718750 2.339844 -2.859809 0 255 0
18.734375 2.488159 -2.862196 0 255 0
18.750000 2.636719 -2.864583 0 255 0
8.765625 1.301147 -1.339193 0 255 0
8.773438 1.370850 -1.340386 0 255 0
8.789062 1.441956 -1.342773 0 255 0
18.843750 3.238770 -2.878906 0 255 0
7.265625 1.305542 -1.110026 0 255 0
7.277344 1.364502 -1.111816 0 255 0
7.285156 1.422882 -1.113010 0 255 0
7.300781 1.482971 -1.115397 0 255 0
18.953125 3.997925 -2.895616 0 255 0
16.312500 3.568359 -2.492188 0 255 0
19.015625 4.308228 -2.905165 0 255 0
19.046875 4.464111 -2.909939 0 255 0
19.093750 4.624268 -2.917101 0 255 0
16.250000 4.062500 -2.482639 0 255 0
19.156250 4.938721 -2.926649 0 255 0
19.203125 5.100830 -2.933811 0 255 0
8.992188 2.458801 -1.373806 0 255 0
9.007812 2.533447 -1.376194 0 255 0
8.265625 2.389282 -1.262804 0 255 0
19.359375 5.747314 -2.957682 0 255 0
19.390625 5.908081 -2.962457 0 255 0
19.437500 6.074219 -2.969618 0 255 0
19.156250 6.135986 -2.926649 0 255 0
7.546875 2.476318 -1.152995 0 255 0
7.546875 2.535278 -1.152995 0 255 0
7.562500 2.599609 -1.155382 0 255 0
7.582031 2.665558 -1.158366 0 255 0
17.296875 6.216064 -2.642578 0 255 0
17.281250 6.345459 -2.640191 0 255 0
17.281250 6.480469 -2.640191 0 255 0
17.375000 6.651367 -2.654514 0 255 0
17.265625 6.744385 -2.637804 0 255 0
9.375000 3.735352 -1.432292 0 255 0
9.398438 3.818115 -1.435872 0 255 0
9.421875 3.901245 -1.439453 0 255 0
15.484375 6.532471 -2.365668 0 255 0
17.500000 7.519531 -2.673611 0 255 0
18.125000 7.929688 -2.769097 0 255 0
14.687500 6.540527 -2.243924 0 255 0
14.476562 6.559692 -2.211697 0 255 0
8.796875 4.054810 -1.343967 0 255 0
18.328125 8.591309 -2.800130 0 255 0
7.984375 3.805054 -1.219835 0 255 0
7.988281 3.869324 -1.220432 0 255 0
8.007812 3.941345 -1.223416 0 255 0
8.031250 4.015625 -1.226997 0 255 0
8.312500 4.221191 -1.269965 0 255 0
8.210938 4.233765 -1.254449 0 255 0
8.117188 4.248840 -1.240126 0 255 0
8.023438 4.262451 -1.225803 0 255 0
7.937500 4.278809 -1.212674 0 255 0
7.847656 4.291687 -1.198947 0 255 0
7.765625 4.307495 -1.186415 0 255 0
7.683594 4.322021 -1.173882 0 255 0
7.652344 4.364227 -1.169108 0 255 0
7.679688 4.439819 -1.173286 0 255 0
7.703125 4.513550 -1.176866 0 255 0
7.730469 4.589966 -1.181044 0 255 0
7.757812 4.666809 -1.185221 0 255 0
7.785156 4.744080 -1.189399 0 255 0
7.812500 4.821777 -1.193576 0 255 0
19.578125 12.236328 -2.991102 0 255 0
19.656250 12.438721 -3.003038 0 255 0
19.718750 12.632324 -3.012587 0 255 0
19.796875 12.837036 -3.024523 0 255 0
19.859375 13.032715 -3.034071 0 255 0
19.812500 13.156738 -3.026910 0 255 0
19.656250 13.206543 -3.003038 0 255 0
19.500000 13.253906 -2.979167 0 255 0
19.343750 13.298828 -2.955295 0 255 0
19.203125 13.352173 -2.933811 0 255 0
19.062500 13.403320 -2.912326 0 255 0
18.890625 13.430054 -2.886068 0 255 0
18.750000 13.476562 -2.864583 0 255 0
18.625000 13.532227 -2.845486 0 255 0
10.171875 7.469971 -1.554036 0 255 0
10.101562 7.497253 -1.543294 0 255 0
10.039062 7.529297 -1.533746 0 255 0
9.968750 7.554443 -1.523003 0 255 0
9.906250 7.584473 -1.513455 0 255 0
9.843750 7.613525 -1.503906 0 255 0
9.781250 7.641602 -1.494358 0 255 0
9.726562 7.674866 -1.486003 0 255 0
9.664062 7.701050 -1.476454 0 255 0
9.609375 7.732544 -1.468099 0 255 0
9.554688 7.763184 -1.459744 0 255 0
9.500000 7.792969 -1.451389 0 255 0
9.445312 7.821899 -1.443034 0 255 0
9.390625 7.849976 -1.434679 0 255 0
9.343750 7.883789 -1.427517 0 255 0
9.296875 7.916870 -1.420356 0 255 0
9.242188 7.942505 -1.412001 0 255 0
9.195312 7.974060 -1.404839 0 255 0
9.148438 8.004883 -1.397678 0 255 0
9.101562 8.034973 -1.390516 0 255 0
9.062500 8.071289 -1.384549 0 255 0
9.015625 8.099976 -1.377387 0 255 0
8.976562 8.135010 -1.371419 0 255 0
8.929688 8.162292 -1.364258 0 255 0
8.890625 8.196045 -1.358290 0 255 0
8.851562 8.229187 -1.352322 0 255 0
8.812500 8.261719 -1.346354 0 255 0
8.773438 8.293640 -1.340386 0 255 0
8.734375 8.324951 -1.334418 0 255 0
8.695312 8.355652 -1.328451 0 255 0
8.664062 8.393311 -1.323676 0 255 0
8.625000 8.422852 -1.317708 0 255 0
8.593750 8.459473 -1.312934 0 255 0
8.554688 8.487854 -1.306966 0 255 0
9.218750 -9.218750 -1.280382 0 255 0
9.656250 -9.580811 -1.341146 0 255 0
9.710938 -9.559204 -1.348741 0 255 0
8.226562 -8.033752 -1.142578 0 255 0
8.203125 -7.946777 -1.139323 0 255 0
8.187500 -7.867676 -1.137153 0 255 0
8.171875 -7.788818 -1.134983 0 255 0
8.156250 -7.710205 -1.132812 0 255 0
8.132812 -7.624512 -1.129557 0 255 0
8.117188 -7.546448 -1.127387 0 255 0
8.101562 -7.468628 -1.125217 0 255 0
8.085938 -7.391052 -1.123047 0 255 0
8.070312 -7.313721 -1.120877 0 255 0
8.054688 -7.236633 -1.118707 0 255 0
8.031250 -7.152832 -1.115451 0 255 0
8.015625 -7.076294 -1.113281 0 255 0
8.000000 -7.000000 -1.111111 0 255 0
7.988281 -6.927338 -1.109484 0 255 0
7.968750 -6.848145 -1.106771 0 255 0
7.953125 -6.772583 -1.104601 0 255 0
7.937500 -6.697266 -1.102431 0 255 0
7.921875 -6.622192 -1.100260 0 255 0
7.945312 -6.579712 -1.103516 0 255 0
8.031250 -6.588135 -1.115451 0 255 0
8.117188 -6.595215 -1.127387 0 255 0
8.210938 -6.607239 -1.140408 0 255 0
8.304688 -6.617798 -1.153429 0 255 0
8.398438 -6.626892 -1.166450 0 255 0
8.500000 -6.640625 -1.180556 0 255 0
11.601562 -8.973083 -1.611328 0 255 0
11.710938 -8.966187 -1.626519 0 255 0
11.820312 -8.957581 -1.641710 0 255 0
11.929688 -8.947266 -1.656901 0 255 0
12.046875 -8.941040 -1.673177 0 255 0
7.703125 -5.656982 -1.069878 0 255 0
7.691406 -5.588287 -1.068251 0 255 0
7.679688 -5.519775 -1.066623 0 255 0
7.667969 -5.451447 -1.064996 0 255 0
7.656250 -5.383301 -1.063368 0 255 0
7.648438 -5.318054 -1.062283 0 255 0
7.636719 -5.250244 -1.060655 0 255 0
7.625000 -5.182617 -1.059028 0 255 0
7.617188 -5.117798 -1.057943 0 255 0
7.605469 -5.050507 -1.056315 0 255 0
7.597656 -4.985962 -1.055230 0 255 0
7.585938 -4.919006 -1.053602 0 255 0
7.578125 -4.854736 -1.052517 0 255 0
7.570312 -4.790588 -1.051432 0 255 0
7.558594 -4.724121 -1.049805 0 255 0
7.550781 -4.660248 -1.048720 0 255 0
7.542969 -4.596497 -1.047635 0 255 0
7.570312 -4.554016 -1.051432 0 255 0
7.796875 -4.629395 -1.082899 0 255 0
8.039062 -4.710388 -1.116536 0 255 0
11.218750 -6.485840 -1.558160 0 255 0
11.179688 -6.375916 -1.552734 0 255 0
11.140625 -6.266602 -1.547309 0 255 0
10.867188 -6.027893 -1.509332 0 255 0
11.070312 -6.054077 -1.537543 0 255 0
7.492188 -4.038757 -1.040582 0 255 0
7.484375 -3.976074 -1.039497 0 255 0
7.480469 -3.915558 -1.038954 0 255 0
7.472656 -3.853088 -1.037869 0 255 0
7.464844 -3.790741 -1.036784 0 255 0
7.460938 -3.730469 -1.036241 0 255 0
7.453125 -3.668335 -1.035156 0 255 0
7.449219 -3.608215 -1.034614 0 255 0
7.445312 -3.548157 -1.034071 0 255 0
7.441406 -3.488159 -1.033529 0 255 0
7.433594 -3.426422 -1.032444 0 255 0
7.429688 -3.366577 -1.031901 0 255 0
7.425781 -3.306793 -1.031359 0 255 0
7.421875 -3.247070 -1.030816 0 255 0
7.421875 -3.189087 -1.030816 0 255 0
7.417969 -3.129456 -1.030273 0 255 0
8.296875 -3.435425 -1.152344 0 255 0
10.492188 -4.262451 -1.457248 0 255 0
10.460938 -4.168030 -1.452908 0 255 0
10.429688 -4.074097 -1.448568 0 255 0
10.406250 -3.983643 -1.445312 0 255 0
8.226562 -3.084961 -1.142578 0 255 0
8.101562 -2.974792 -1.125217 0 255 0
8.015625 -2.880615 -1.113281 0 255 0
7.964844 -2.800140 -1.106228 0 255 0
7.933594 -2.727173 -1.101888 0 255 0
7.910156 -2.657318 -1.098633 0 255 0
7.898438 -2.591675 -1.097005 0 255 0
7.894531 -2.528717 -1.096463 0 255 0
7.898438 -2.468262 -1.097005 0 255 0
7.914062 -2.411316 -1.099175 0 255 0
7.937500 -2.356445 -1.102431 0 255 0
7.976562 -2.305725 -1.107856 0 255 0
7.445312 -2.093994 -1.034071 0 255 0
7.429688 -2.031555 -1.031901 0 255 0
7.417969 -1.970398 -1.030273 0 255 0
19.109375 -4.926636 -2.654080 0 255 0
19.046875 -4.761719 -2.645399 0 255 0
19.046875 -4.612915 -2.645399 0 255 0
8.921875 -2.091064 -1.239149 0 255 0
8.906250 -2.017822 -1.236979 0 255 0
8.890625 -1.944824 -1.234809 0 255 0
18.921875 -3.991333 -2.628038 0 255 0
18.890625 -3.837158 -2.623698 0 255 0
18.859375 -3.683472 -2.619358 0 255 0
18.828125 -3.530273 -2.615017 0 255 0
16.078125 -2.889038 -2.233073 0 255 0
16.046875 -2.758057 -2.228733 0 255 0
16.031250 -2.630127 -2.226562 0 255 0
16.015625 -2.502441 -2.224392 0 255 0
16.000000 -2.375000 -2.222222 0 255 0
15.984375 -2.247803 -2.220052 0 255 0
7.203125 -0.956665 -1.000434 0 255 0
7.195312 -0.899414 -0.999349 0 255 0
7.187500 -0.842285 -0.998264 0 255 0
7.187500 -0.786133 -0.998264 0 255 0
8.703125 -0.883911 -1.208767 0 255 0
8.695312 -0.815186 -1.207682 0 255 0
18.593750 -1.597900 -2.582465 0 255 0
18.578125 -1.451416 -2.580295 0 255 0
18.484375 -1.299683 -2.567274 0 255 0
18.515625 -1.157227 -2.571615 0 255 0
18.578125 -1.015991 -2.580295 0 255 0
18.578125 -0.870850 -2.580295 0 255 0
18.562500 -0.725098 -2.578125 0 255 0
18.562500 -0.580078 -2.578125 0 255 0
18.562500 -0.435059 -2.578125 0 255 0
18.562500 -0.290039 -2.578125 0 255 0
18.546875 -0.144897 -2.575955 0 255 0
18.546875 0.000000 -2.575955 0 255 0
18.562500 0.145020 -2.578125 0 255 0
8.640625 0.135010 -1.200087 0 255 0
7.144531 0.167450 -0.992296 0 255 0
7.148438 0.223389 -0.992839 0 255 0
7.148438 0.279236 -0.992839 0 255 0
7.156250 0.335449 -0.993924 0 255 0
18.578125 1.015991 -2.580295 0 255 0
18.593750 1.162109 -2.582465 0 255 0
18.609375 1.308472 -2.584635 0 255 0
18.609375 1.453857 -2.584635 0 255 0
18.625000 1.600586 -2.586806 0 255 0
18.640625 1.747559 -2.588976 0 255 0
18.656250 1.894775 -2.591146 0 255 0
18.671875 2.042236 -2.593316 0 255 0
18.687500 2.189941 -2.595486 0 255 0
18.703125 2.337891 -2.597656 0 255 0
18.718750 2.486084 -2.599826 0 255 0
18.750000 2.636719 -2.604167 0 255 0
8.757812 1.299988 -1.216363 0 255 0
8.773438 1.370850 -1.218533 0 255 0
8.781250 1.440674 -1.219618 0 255 0
18.843750 3.238770 -2.617188 0 255 0
7.261719 1.304840 -1.008572 0 255 0
7.273438 1.363770 -1.010200 0 255 0
7.281250 1.422119 -1.011285 0 255 0
7.296875 1.482178 -1.013455 0 255 0
18.953125 3.997925 -2.632378 0 255 0
16.296875 3.564941 -2.263455 0 255 0
19.015625 4.308228 -2.641059 0 255 0
19.046875 4.464111 -2.645399 0 255 0
19.078125 4.620483 -2.649740 0 255 0
16.234375 4.058594 -2.254774 0 255 0
19.140625 4.934692 -2.658420 0 255 0
19.187500 5.096680 -2.664931 0 255 0
8.984375 2.456665 -1.247830 0 255 0
9.007812 2.533447 -1.251085 0 255 0
8.257812 2.387024 -1.146918 0 255 0
19.343750 5.742676 -2.686632 0 255 0
19.390625 5.908081 -2.693142 0 255 0
19.421875 6.069336 -2.697483 0 255 0
19.140625 6.130981 -2.658420 0 255 0
7.542969 2.475037 -1.047635 0 255 0
7.542969 2.533966 -1.047635 0 255 0
7.558594 2.598267 -1.049805 0 255 0
7.578125 2.664185 -1.052517 0 255 0
17.281250 6.210449 -2.400174 0 255 0
17.281250 6.345459 -2.400174 0 255 0
17.281250 6.480469 -2.400174 0 255 0
17.359375 6.645386 -2.411024 0 255 0
17.265625 6.744385 -2.398003 0 255 0
9.367188 3.732239 -1.300998 0 255 0
9.398438 3.818115 -1.305339 0 255 0
9.421875 3.901245 -1.308594 0 255 0
15.476562 6.529175 -2.149523 0 255 0
17.484375 7.512817 -2.428385 0 255 0
18.125000 7.929688 -2.517361 0 255 0
14.679688 6.537048 -2.038845 0 255 0
14.468750 6.556152 -2.009549 0 255 0
8.796875 4.054810 -1.221788 0 255 0
18.312500 8.583984 -2.543403 0 255 0
7.980469 3.803192 -1.108398 0 255 0
7.984375 3.867432 -1.108941 0 255 0
8.007812 3.941345 -1.112196 0 255 0
8.031250 4.015625 -1.115451 0 255 0
8.304688 4.217224 -1.153429 0 255 0
8.210938 4.233765 -1.140408 0 255 0
8.109375 4.244751 -1.126302 0 255 0
8.023438 4.262451 -1.114366 0 255 0
7.933594 4.276703 -1.101888 0 255 0
7.843750 4.289551 -1.089410 0 255 0
7.761719 4.305328 -1.078016 0 255 0
7.679688 4.319824 -1.066623 0 255 0
7.648438 4.362000 -1.062283 0 255 0
7.675781 4.437561 -1.066081 0 255 0
7.699219 4.511261 -1.069336 0 255 0
7.726562 4.587646 -1.073134 0 255 0
7.753906 4.664459 -1.076931 0 255 0
7.781250 4.741699 -1.080729 0 255 0
7.808594 4.819366 -1.084527 0 255 0
19.578125 12.236328 -2.719184 0 255 0
19.640625 12.428833 -2.727865 0 255 0
19.718750 12.632324 -2.738715 0 255 0
19.781250 12.826904 -2.747396 0 255 0
19.859375 13.032715 -2.758247 0 255 0
19.796875 13.146362 -2.749566 0 255 0
19.640625 13.196045 -2.727865 0 255 0
19.484375 13.243286 -2.706163 0 255 0
19.343750 13.298828 -2.686632 0 255 0
19.187500 13.341309 -2.664931 0 255 0
19.046875 13.392334 -2.645399 0 255 0
18.875000 13.418945 -2.621528 0 255 0
18.734375 13.465332 -2.601997 0 255 0
18.609375 13.520874 -2.584635 0 255 0
10.171875 7.469971 -1.412760 0 255 0
10.101562 7.497253 -1.402995 0 255 0
10.031250 7.523438 -1.393229 0 255 0
9.968750 7.554443 -1.384549 0 255 0
9.906250 7.584473 -1.375868 0 255 0
9.843750 7.613525 -1.367188 0 255 0
9.781250 7.641602 -1.358507 0 255 0
9.718750 7.668701 -1.349826 0 255 0
9.664062 7.701050 -1.342231 0 255 0
9.609375 7.732544 -1.334635 0 255 0
9.546875 7.756836 -1.325955 0 255 0
9.492188 7.786560 -1.318359 0 255 0
9.445312 7.821899 -1.311849 0 255 0
9.390625 7.849976 -1.304253 0 255 0
9.343750 7.883789 -1.297743 0 255 0
9.289062 7.910217 -1.290148 0 255 0
9.242188 7.942505 -1.283637 0 255 0
9.195312 7.974060 -1.277127 0 255 0
9.148438 8.004883 -1.270616 0 255 0
9.101562 8.034973 -1.264106 0 255 0
9.054688 8.064331 -1.257595 0 255 0
9.015625 8.099976 -1.252170 0 255 0
8.968750 8.127930 -1.245660 0 255 0
8.929688 8.162292 -1.240234 0 255 0
8.890625 8.196045 -1.234809 0 255 0
8.851562 8.229187 -1.229384 0 255 0
8.812500 8.261719 -1.223958 0 255 0
8.773438 8.293640 -1.218533 0 255 0
8.734375 8.324951 -1.213108 0 255 0
8.695312 8.355652 -1.207682 0 255 0
8.656250 8.385742 -1.202257 0 255 0
8.625000 8.422852 -1.197917 0 255 0
8.585938 8.451782 -1.192491 0 255 0
8.554688 8.487854 -1.188151 0 255 0
9.218750 -9.218750 -1.152344 0 255 0
9.656250 -9.580811 -1.207031 0 255 0
9.710938 -9.559204 -1.213867 0 255 0
8.226562 -8.033752 -1.028320 0 255 0
8.210938 -7.954346 -1.026367 0 255 0
8.187500 -7.867676 -1.023438 0 255 0
8.171875 -7.788818 -1.021484 0 255 0
8.156250 -7.710205 -1.019531 0 255 0
8.140625 -7.631836 -1.017578 0 255 0
8.125000 -7.553711 -1.015625 0 255 0
8.101562 -7.468628 -1.012695 0 255 0
8.085938 -7.391052 -1.010742 0 255 0
8.070312 -7.313721 -1.008789 0 255 0
8.054688 -7.236633 -1.006836 0 255 0
8.039062 -7.159790 -1.004883 0 255 0
8.023438 -7.083191 -1.002930 0 255 0
8.007812 -7.006836 -1.000977 0 255 0
7.988281 -6.927338 -0.998535 0 255 0
7.972656 -6.851501 -0.996582 0 255 0
7.957031 -6.775909 -0.994629 0 255 0
7.941406 -6.700562 -0.992676 0 255 0
7.925781 -6.625458 -0.990723 0 255 0
7.957031 -6.589417 -0.994629 0 255 0
8.039062 -6.594543 -1.004883 0 255 0
8.125000 -6.601562 -1.015625 0 255 0
8.218750 -6.613525 -1.027344 0 255 0
8.312500 -6.624023 -1.039062 0 255 0
8.414062 -6.639221 -1.051758 0 255 0
8.507812 -6.646729 -1.063477 0 255 0
11.601562 -8.973083 -1.450195 0 255 0
11.703125 -8.960205 -1.462891 0 255 0
11.812500 -8.951660 -1.476562 0 255 0
11.929688 -8.947266 -1.491211 0 255 0
12.046875 -8.941040 -1.505859 0 255 0
7.703125 -5.656982 -0.962891 0 255 0
7.691406 -5.588287 -0.961426 0 255 0
7.683594 -5.522583 -0.960449 0 255 0
7.671875 -5.454224 -0.958984 0 255 0
7.660156 -5.386047 -0.957520 0 255 0
7.648438 -5.318054 -0.956055 0 255 0
7.640625 -5.252930 -0.955078 0 255 0
7.628906 -5.185272 -0.953613 0 255 0
7.617188 -5.117798 -0.952148 0 255 0
7.609375 -5.053101 -0.951172 0 255 0
7.597656 -4.985962 -0.949707 0 255 0
7.589844 -4.921539 -0.948730 0 255 0
7.582031 -4.857239 -0.947754 0 255 0
7.570312 -4.790588 -0.946289 0 255 0
7.562500 -4.726562 -0.945312 0 255 0
7.554688 -4.662659 -0.944336 0 255 0
7.542969 -4.596497 -0.942871 0 255 0
7.593750 -4.568115 -0.949219 0 255 0
7.824219 -4.645630 -0.978027 0 255 0
8.070312 -4.728699 -1.008789 0 255 0
11.640625 -6.729736 -1.455078 0 255 0
11.757812 -6.705627 -1.469727 0 255 0
11.882812 -6.684082 -1.485352 0 255 0
10.851562 -6.019226 -1.356445 0 255 0
11.835938 -6.472778 -1.479492 0 255 0
7.496094 -4.040863 -0.937012 0 255 0
7.488281 -3.978149 -0.936035 0 255 0
7.480469 -3.915558 -0.935059 0 255 0
7.472656 -3.853088 -0.934082 0 255 0
7.468750 -3.792725 -0.933594 0 255 0
7.460938 -3.730469 -0.932617 0 255 0
7.457031 -3.670258 -0.932129 0 255 0
7.453125 -3.610107 -0.931641 0 255 0
7.445312 -3.548157 -0.930664 0 255 0
7.441406 -3.488159 -0.930176 0 255 0
7.437500 -3.428223 -0.929688 0 255 0
7.433594 -3.368347 -0.929199 0 255 0
7.429688 -3.308533 -0.928711 0 255 0
7.425781 -3.248779 -0.928223 0 255 0
7.421875 -3.189087 -0.927734 0 255 0
7.417969 -3.129456 -0.927246 0 255 0
8.296875 -3.435425 -1.037109 0 255 0
8.335938 -3.386475 -1.041992 0 255 0
8.335938 -3.321350 -1.041992 0 255 0
8.242188 -3.219604 -1.030273 0 255 0
8.242188 -3.155212 -1.030273 0 255 0
8.218750 -3.082031 -1.027344 0 255 0
8.093750 -2.971924 -1.011719 0 255 0
8.015625 -2.880615 -1.001953 0 255 0
7.960938 -2.798767 -0.995117 0 255 0
7.929688 -2.725830 -0.991211 0 255 0
7.906250 -2.656006 -0.988281 0 255 0
7.894531 -2.590393 -0.986816 0 255 0
7.890625 -2.527466 -0.986328 0 255 0
7.894531 -2.467041 -0.986816 0 255 0
7.910156 -2.410126 -0.988770 0 255 0
7.933594 -2.355286 -0.991699 0 255 0
7.972656 -2.304596 -0.996582 0 255 0
7.441406 -2.092896 -0.930176 0 255 0
7.429688 -2.031555 -0.928711 0 255 0
7.414062 -1.969360 -0.926758 0 255 0
19.109375 -4.926636 -2.388672 0 255 0
19.031250 -4.757812 -2.378906 0 255 0
19.031250 -4.609131 -2.378906 0 255 0
8.914062 -2.089233 -1.114258 0 255 0
8.906250 -2.017822 -1.113281 0 255 0
8.882812 -1.943115 -1.110352 0 255 0
18.906250 -3.988037 -2.363281 0 255 0
18.875000 -3.833984 -2.359375 0 255 0
18.859375 -3.683472 -2.357422 0 255 0
18.828125 -3.530273 -2.353516 0 255 0
16.062500 -2.886230 -2.007812 0 255 0
16.046875 -2.758057 -2.005859 0 255 0
16.015625 -2.627563 -2.001953 0 255 0
16.000000 -2.500000 -2.000000 0 255 0
15.992188 -2.373840 -1.999023 0 255 0
15.976562 -2.246704 -1.997070 0 255 0
7.199219 -0.956146 -0.899902 0 255 0
7.191406 -0.898926 -0.898926 0 255 0
7.183594 -0.841827 -0.897949 0 255 0
7.183594 -0.785706 -0.897949 0 255 0
8.695312 -0.883118 -1.086914 0 255 0
8.687500 -0.814453 -1.085938 0 255 0
18.578125 -1.596558 -2.322266 0 255 0
18.562500 -1.450195 -2.320312 0 255 0
18.484375 -1.299683 -2.310547 0 255 0
18.500000 -1.156250 -2.312500 0 255 0
18.562500 -1.015137 -2.320312 0 255 0
18.562500 -0.870117 -2.320312 0 255 0
18.562500 -0.725098 -2.320312 0 255 0
18.546875 -0.579590 -2.318359 0 255 0
18.546875 -0.434692 -2.318359 0 255 0
18.546875 -0.289795 -2.318359 0 255 0
18.546875 -0.144897 -2.318359 0 255 0
18.546875 0.000000 -2.318359 0 255 0
18.546875 0.144897 -2.318359 0 255 0
8.640625 0.135010 -1.080078 0 255 0
7.140625 0.167358 -0.892578 0 255 0
7.144531 0.223267 -0.893066 0 255 0
7.144531 0.279083 -0.893066 0 255 0
7.152344 0.335266 -0.894043 0 255 0
18.578125 1.015991 -2.322266 0 255 0
18.578125 1.161133 -2.322266 0 255 0
18.593750 1.307373 -2.324219 0 255 0
18.609375 1.453857 -2.326172 0 255 0
18.625000 1.600586 -2.328125 0 255 0
18.625000 1.746094 -2.328125 0 255 0
18.640625 1.893188 -2.330078 0 255 0
18.656250 2.040527 -2.332031 0 255 0
18.671875 2.188110 -2.333984 0 255 0
18.703125 2.337891 -2.337891 0 255 0
18.718750 2.486084 -2.339844 0 255 0
18.734375 2.634521 -2.341797 0 255 0
8.757812 1.299988 -1.094727 0 255 0
8.765625 1.369629 -1.095703 0 255 0
8.773438 1.439392 -1.096680 0 255 0
18.828125 3.236084 -2.353516 0 255 0
7.257812 1.304138 -0.907227 0 255 0
7.269531 1.363037 -0.908691 0 255 0
7.277344 1.421356 -0.909668 0 255 0
7.292969 1.481384 -0.911621 0 255 0
18.937500 3.994629 -2.367188 0 255 0
16.281250 3.561523 -2.035156 0 255 0
19.000000 4.304688 -2.375000 0 255 0
19.031250 4.460449 -2.378906 0 255 0
19.062500 4.616699 -2.382812 0 255 0
16.234375 4.058594 -2.029297 0 255 0
19.140625 4.934692 -2.392578 0 255 0
19.171875 5.092529 -2.396484 0 255 0
8.976562 2.454529 -1.122070 0 255 0
9.000000 2.531250 -1.125000 0 255 0
8.257812 2.387024 -1.032227 0 255 0
19.328125 5.738037 -2.416016 0 255 0
19.375000 5.903320 -2.421875 0 255 0
19.421875 6.069336 -2.427734 0 255 0
19.125000 6.125977 -2.390625 0 255 0
7.539062 2.473755 -0.942383 0 255 0
7.539062 2.532654 -0.942383 0 255 0
7.554688 2.596924 -0.944336 0 255 0
7.574219 2.662811 -0.946777 0 255 0
17.281250 6.210449 -2.160156 0 255 0
17.265625 6.339722 -2.158203 0 255 0
17.265625 6.474609 -2.158203 0 255 0
17.359375 6.645386 -2.169922 0 255 0
17.250000 6.738281 -2.156250 0 255 0
9.367188 3.732239 -1.170898 0 255 0
9.390625 3.814941 -1.173828 0 255 0
9.414062 3.898010 -1.176758 0 255 0
15.468750 6.525879 -1.933594 0 255 0
17.484375 7.512817 -2.185547 0 255 0
18.109375 7.922852 -2.263672 0 255 0
14.671875 6.533569 -1.833984 0 255 0
14.460938 6.552612 -1.807617 0 255 0
8.789062 4.051208 -1.098633 0 255 0
18.312500 8.583984 -2.289062 0 255 0
7.976562 3.801331 -0.997070 0 255 0
7.980469 3.865540 -0.997559 0 255 0
8.000000 3.937500 -1.000000 0 255 0
8.023438 4.011719 -1.002930 0 255 0
8.304688 4.217224 -1.038086 0 255 0
8.203125 4.229736 -1.025391 0 255 0
8.109375 4.244751 -1.013672 0 255 0
8.015625 4.258301 -1.001953 0 255 0
7.929688 4.274597 -0.991211 0 255 0
7.843750 4.289551 -0.980469 0 255 0
7.757812 4.303162 -0.969727 0 255 0
7.675781 4.317627 -0.959473 0 255 0
7.644531 4.359772 -0.955566 0 255 0
7.671875 4.435303 -0.958984 0 255 0
7.699219 4.511261 -0.962402 0 255 0
7.722656 4.585327 -0.965332 0 255 0
7.750000 4.662109 -0.968750 0 255 0
7.777344 4.739319 -0.972168 0 255 0
7.804688 4.816956 -0.975586 0 255 0
19.562500 12.226562 -2.445312 0 255 0
19.640625 12.428833 -2.455078 0 255 0
19.703125 12.622314 -2.462891 0 255 0
19.781250 12.826904 -2.472656 0 255 0
19.843750 13.022461 -2.480469 0 255 0
19.796875 13.146362 -2.474609 0 255 0
19.640625 13.196045 -2.455078 0 255 0
19.484375 13.243286 -2.435547 0 255 0
19.328125 13.288086 -2.416016 0 255 0
19.187500 13.341309 -2.398438 0 255 0
19.046875 13.392334 -2.380859 0 255 0
18.875000 13.418945 -2.359375 0 255 0
18.734375 13.465332 -2.341797 0 255 0
18.609375 13.520874 -2.326172 0 255 0
10.164062 7.464233 -1.270508 0 255 0
10.101562 7.497253 -1.262695 0 255 0
10.031250 7.523438 -1.253906 0 255 0
9.968750 7.554443 -1.246094 0 255 0
9.898438 7.578491 -1.237305 0 255 0
9.835938 7.607483 -1.229492 0 255 0
9.781250 7.641602 -1.222656 0 255 0
9.718750 7.668701 -1.214844 0 255 0
9.656250 7.694824 -1.207031 0 255 0
9.601562 7.726257 -1.200195 0 255 0
9.546875 7.756836 -1.193359 0 255 0
9.492188 7.786560 -1.186523 0 255 0
9.437500 7.815430 -1.179688 0 255 0
9.390625 7.849976 -1.173828 0 255 0
9.335938 7.877197 -1.166992 0 255 0
9.289062 7.910217 -1.161133 0 255 0
9.242188 7.942505 -1.155273 0 255 0
9.187500 7.967285 -1.148438 0 255 0
9.148438 8.004883 -1.143555 0 255 0
9.101562 8.034973 -1.137695 0 255 0
9.054688 8.064331 -1.131836 0 255 0
9.007812 8.092957 -1.125977 0 255 0
8.968750 8.127930 -1.121094 0 255 0
8.929688 8.162292 -1.116211 0 255 0
8.882812 8.188843 -1.110352 0 255 0
8.843750 8.221924 -1.105469 0 255 0
8.804688 8.254395 -1.100586 0 255 0
8.765625 8.286255 -1.095703 0 255 0
8.726562 8.317505 -1.090820 0 255 0
8.695312 8.355652 -1.086914 0 255 0
8.656250 8.385742 -1.082031 0 255 0
8.625000 8.422852 -1.078125 0 255 0
8.585938 8.451782 -1.073242 0 255 0
8.554688 8.487854 -1.069336 0 255 0
9.210938 -9.210938 -1.023438 0 255 0
9.656250 -9.580811 -1.072917 0 255 0
9.710938 -9.559204 -1.078993 0 255 0
8.226562 -8.033752 -0.914062 0 255 0
8.210938 -7.954346 -0.912326 0 255 0
8.195312 -7.875183 -0.910590 0 255 0
8.179688 -7.796265 -0.908854 0 255 0
8.156250 -7.710205 -0.906250 0 255 0
8.140625 -7.631836 -0.904514 0 255 0
8.125000 -7.553711 -0.902778 0 255 0
8.109375 -7.475830 -0.901042 0 255 0
8.093750 -7.398193 -0.899306 0 255 0
8.070312 -7.313721 -0.896701 0 255 0
8.054688 -7.236633 -0.894965 0 255 0
8.039062 -7.159790 -0.893229 0 255 0
8.023438 -7.083191 -0.891493 0 255 0
8.007812 -7.006836 -0.889757 0 255 0
7.992188 -6.930725 -0.888021 0 255 0
7.976562 -6.854858 -0.886285 0 255 0
7.960938 -6.779236 -0.884549 0 255 0
7.945312 -6.703857 -0.882812 0 255 0
7.925781 -6.625458 -0.880642 0 255 0
7.968750 -6.599121 -0.885417 0 255 0
8.054688 -6.607361 -0.894965 0 255 0
8.140625 -6.614258 -0.904514 0 255 0
8.234375 -6.626099 -0.914931 0 255 0
8.328125 -6.636475 -0.925347 0 255 0
8.421875 -6.645386 -0.935764 0 255 0
8.523438 -6.658936 -0.947049 0 255 0
11.593750 -8.967041 -1.288194 0 255 0
11.703125 -8.960205 -1.300347 0 255 0
11.812500 -8.951660 -1.312500 0 255 0
11.921875 -8.941406 -1.324653 0 255 0
12.039062 -8.935242 -1.337674 0 255 0
7.707031 -5.659851 -0.856337 0 255 0
7.695312 -5.591125 -0.855035 0 255 0
7.683594 -5.522583 -0.853733 0 255 0
7.671875 -5.454224 -0.852431 0 255 0
7.664062 -5.388794 -0.851562 0 255 0
7.652344 -5.320770 -0.850260 0 255 0
7.640625 -5.252930 -0.848958 0 255 0
7.632812 -5.187927 -0.848090 0 255 0
7.621094 -5.120422 -0.846788 0 255 0
7.613281 -5.055695 -0.845920 0 255 0
7.601562 -4.988525 -0.844618 0 255 0
7.593750 -4.924072 -0.843750 0 255 0
7.582031 -4.857239 -0.842448 0 255 0
7.574219 -4.793060 -0.841580 0 255 0
7.566406 -4.729004 -0.840712 0 255 0
7.554688 -4.662659 -0.839410 0 255 0
7.546875 -4.598877 -0.838542 0 255 0
7.617188 -4.582214 -0.846354 0 255 0
7.851562 -4.661865 -0.872396 0 255 0
8.093750 -4.742432 -0.899306 0 255 0
8.406250 -4.859863 -0.934028 0 255 0
8.398438 -4.789734 -0.933160 0 255 0
8.382812 -4.715332 -0.931424 0 255 0
8.375000 -4.645508 -0.930556 0 255 0
8.367188 -4.575806 -0.929688 0 255 0
7.496094 -4.040863 -0.832899 0 255 0
7.488281 -3.978149 -0.832031 0 255 0
7.484375 -3.917603 -0.831597 0 255 0
7.476562 -3.855103 -0.830729 0 255 0
7.472656 -3.794708 -0.830295 0 255 0
7.464844 -3.732422 -0.829427 0 255 0
7.460938 -3.672180 -0.828993 0 255 0
7.453125 -3.610107 -0.828125 0 255 0
7.449219 -3.550018 -0.827691 0 255 0
7.445312 -3.489990 -0.827257 0 255 0
7.441406 -3.430023 -0.826823 0 255 0
7.437500 -3.370117 -0.826389 0 255 0
7.433594 -3.310272 -0.825955 0 255 0
7.429688 -3.250488 -0.825521 0 255 0
7.425781 -3.190765 -0.825087 0 255 0
7.453125 -3.144287 -0.828125 0 255 0
8.289062 -3.432190 -0.921007 0 255 0
11.203125 -4.551270 -1.244792 0 255 0
11.179688 -4.454407 -1.242188 0 255 0
11.148438 -4.354858 -1.238715 0 255 0
11.117188 -4.255798 -1.235243 0 255 0
8.218750 -3.082031 -0.913194 0 255 0
8.093750 -2.971924 -0.899306 0 255 0
8.007812 -2.877808 -0.889757 0 255 0
7.957031 -2.797394 -0.884115 0 255 0
7.925781 -2.724487 -0.880642 0 255 0
7.902344 -2.654694 -0.878038 0 255 0
7.890625 -2.589111 -0.876736 0 255 0
7.886719 -2.526215 -0.876302 0 255 0
7.890625 -2.465820 -0.876736 0 255 0
7.906250 -2.408936 -0.878472 0 255 0
7.929688 -2.354126 -0.881076 0 255 0
7.968750 -2.303467 -0.885417 0 255 0
7.437500 -2.091797 -0.826389 0 255 0
7.425781 -2.030487 -0.825087 0 255 0
7.410156 -1.968323 -0.823351 0 255 0
9.804688 -2.527771 -1.089410 0 255 0
9.750000 -2.437500 -1.083333 0 255 0
9.687500 -2.346191 -1.076389 0 255 0
8.914062 -2.089233 -0.990451 0 255 0
8.898438 -2.016052 -0.988715 0 255 0
8.882812 -1.943115 -0.986979 0 255 0
9.554688 -2.015442 -1.061632 0 255 0
9.648438 -1.959839 -1.072049 0 255 0
9.750000 -1.904297 -1.083333 0 255 0
18.812500 -3.527344 -2.090278 0 255 0
16.062500 -2.886230 -1.784722 0 255 0
16.031250 -2.755371 -1.781250 0 255 0
16.015625 -2.627563 -1.779514 0 255 0
16.000000 -2.500000 -1.777778 0 255 0
15.984375 -2.372681 -1.776042 0 255 0
15.968750 -2.245605 -1.774306 0 255 0
7.195312 -0.955627 -0.799479 0 255 0
7.187500 -0.898438 -0.798611 0 255 0
7.179688 -0.841370 -0.797743 0 255 0
7.183594 -0.785706 -0.798177 0 255 0
8.695312 -0.883118 -0.966146 0 255 0
8.687500 -0.814453 -0.965278 0 255 0
18.562500 -1.595215 -2.062500 0 255 0
18.562500 -1.450195 -2.062500 0 255 0
18.468750 -1.298584 -2.052083 0 255 0
18.500000 -1.156250 -2.055556 0 255 0
18.562500 -1.015137 -2.062500 0 255 0
18.546875 -0.869385 -2.060764 0 255 0
18.546875 -0.724487 -2.060764 0 255 0
18.546875 -0.579590 -2.060764 0 255 0
18.531250 -0.434326 -2.059028 0 255 0
18.531250 -0.289551 -2.059028 0 255 0
18.531250 -0.144775 -2.059028 0 255 0
18.531250 0.000000 -2.059028 0 255 0
18.531250 0.144775 -2.059028 0 255 0
8.632812 0.134888 -0.959201 0 255 0
7.136719 0.167267 -0.792969 0 255 0
7.140625 0.223145 -0.793403 0 255 0
7.140625 0.278931 -0.793403 0 255 0
7.148438 0.335083 -0.794271 0 255 0
18.562500 1.015137 -2.062500 0 255 0
18.578125 1.161133 -2.064236 0 255 0
18.578125 1.306274 -2.064236 0 255 0
18.593750 1.452637 -2.065972 0 255 0
18.609375 1.599243 -2.067708 0 255 0
18.625000 1.746094 -2.069444 0 255 0
18.640625 1.893188 -2.071181 0 255 0
18.656250 2.040527 -2.072917 0 255 0
18.671875 2.188110 -2.074653 0 255 0
18.687500 2.335938 -2.076389 0 255 0
18.703125 2.484009 -2.078125 0 255 0
18.718750 2.632324 -2.079861 0 255 0
8.750000 1.298828 -0.972222 0 255 0
8.765625 1.369629 -0.973958 0 255 0
8.773438 1.439392 -0.974826 0 255 0
18.812500 3.233398 -2.090278 0 255 0
7.253906 1.303436 -0.805990 0 255 0
7.265625 1.362305 -0.807292 0 255 0
7.273438 1.420593 -0.808160 0 255 0
7.289062 1.480591 -0.809896 0 255 0
18.921875 3.991333 -2.102431 0 255 0
16.281250 3.561523 -1.809028 0 255 0
18.984375 4.301147 -2.109375 0 255 0
19.031250 4.460449 -2.114583 0 255 0
19.062500 4.616699 -2.118056 0 255 0
16.218750 4.054688 -1.802083 0 255 0
19.125000 4.930664 -2.125000 0 255 0
19.171875 5.092529 -2.130208 0 255 0
8.976562 2.454529 -0.997396 0 255 0
8.992188 2.529053 -0.999132 0 255 0
8.250000 2.384766 -0.916667 0 255 0
19.328125 5.738037 -2.147569 0 255 0
19.359375 5.898560 -2.151042 0 255 0
19.406250 6.064453 -2.156250 0 255 0
19.125000 6.125977 -2.125000 0 255 0
7.535156 2.472473 -0.837240 0 255 0
7.535156 2.531342 -0.837240 0 255 0
7.554688 2.596924 -0.839410 0 255 0
7.570312 2.661438 -0.841146 0 255 0
17.265625 6.204834 -1.918403 0 255 0
17.265625 6.339722 -1.918403 0 255 0
17.265625 6.474609 -1.918403 0 255 0
17.343750 6.639404 -1.927083 0 255 0
17.250000 6.738281 -1.916667 0 255 0
9.359375 3.729126 -1.039931 0 255 0
9.382812 3.811768 -1.042535 0 255 0
9.414062 3.898010 -1.046007 0 255 0
15.468750 6.525879 -1.718750 0 255 0
17.468750 7.506104 -1.940972 0 255 0
18.109375 7.922852 -2.012153 0 255 0
14.664062 6.530090 -1.629340 0 255 0
14.460938 6.552612 -1.606771 0 255 0
8.789062 4.051208 -0.976562 0 255 0
18.296875 8.576660 -2.032986 0 255 0
7.972656 3.799469 -0.885851 0 255 0
7.976562 3.863647 -0.886285 0 255 0
8.000000 3.937500 -0.888889 0 255 0
8.023438 4.011719 -0.891493 0 255 0
8.296875 4.213257 -0.921875 0 255 0
8.203125 4.229736 -0.911458 0 255 0
8.109375 4.244751 -0.901042 0 255 0
8.015625 4.258301 -0.890625 0 255 0
7.925781 4.272491 -0.880642 0 255 0
7.839844 4.287415 -0.871094 0 255 0
7.753906 4.300995 -0.861545 0 255 0
7.671875 4.315430 -0.852431 0 255 0
7.644531 4.359772 -0.849392 0 255 0
7.667969 4.433044 -0.851997 0 255 0
7.695312 4.508972 -0.855035 0 255 0
7.722656 4.585327 -0.858073 0 255 0
7.750000 4.662109 -0.861111 0 255 0
7.773438 4.736938 -0.863715 0 255 0
7.800781 4.814545 -0.866753 0 255 0
19.562500 12.226562 -2.173611 0 255 0
19.625000 12.418945 -2.180556 0 255 0
19.703125 12.622314 -2.189236 0 255 0
19.765625 12.816772 -2.196181 0 255 0
19.843750 13.022461 -2.204861 0 255 0
19.781250 13.135986 -2.197917 0 255 0
19.625000 13.185547 -2.180556 0 255 0
19.468750 13.232666 -2.163194 0 255 0
19.328125 13.288086 -2.147569 0 255 0
19.187500 13.341309 -2.131944 0 255 0
19.031250 13.381348 -2.114583 0 255 0
18.859375 13.407837 -2.095486 0 255 0
18.734375 13.465332 -2.081597 0 255 0
18.593750 13.509521 -2.065972 0 255 0
10.164062 7.464233 -1.129340 0 255 0
10.093750 7.491455 -1.121528 0 255 0
10.031250 7.523438 -1.114583 0 255 0
9.960938 7.548523 -1.106771 0 255 0
9.898438 7.578491 -1.099826 0 255 0
9.835938 7.607483 -1.092882 0 255 0
9.773438 7.635498 -1.085938 0 255 0
9.718750 7.668701 -1.079861 0 255 0
9.656250 7.694824 -1.072917 0 255 0
9.601562 7.726257 -1.066840 0 255 0
9.546875 7.756836 -1.060764 0 255 0
9.492188 7.786560 -1.054688 0 255 0
9.437500 7.815430 -1.048611 0 255 0
9.382812 7.843445 -1.042535 0 255 0
9.335938 7.877197 -1.037326 0 255 0
9.281250 7.903564 -1.031250 0 255 0
9.234375 7.935791 -1.026042 0 255 0
9.187500 7.967285 -1.020833 0 255 0
9.140625 7.998047 -1.015625 0 255 0
9.093750 8.028076 -1.010417 0 255 0
9.054688 8.064331 -1.006076 0 255 0
9.007812 8.092957 -1.000868 0 255 0
8.968750 8.127930 -0.996528 0 255 0
8.921875 8.155151 -0.991319 0 255 0
8.882812 8.188843 -0.986979 0 255 0
8.843750 8.221924 -0.982639 0 255 0
8.804688 8.254395 -0.978299 0 255 0
8.765625 8.286255 -0.973958 0 255 0
8.726562 8.317505 -0.969618 0 255 0
8.687500 8.348145 -0.965278 0 255 0
8.656250 8.385742 -0.961806 0 255 0
8.617188 8.415222 -0.957465 0 255 0
8.585938 8.451782 -0.953993 0 255 0
8.554688 8.487854 -0.950521 0 255 0
9.210938 -9.210938 -0.895508 0 255 0
9.656250 -9.580811 -0.938802 0 255 0
9.328125 -9.182373 -0.906901 0 255 0
8.234375 -8.041382 -0.800564 0 255 0
8.218750 -7.961914 -0.799045 0 255 0
8.195312 -7.875183 -0.796766 0 255 0
8.179688 -7.796265 -0.795247 0 255 0
8.164062 -7.717590 -0.793728 0 255 0
8.148438 -7.639160 -0.792209 0 255 0
8.125000 -7.553711 -0.789931 0 255 0
8.109375 -7.475830 -0.788411 0 255 0
8.093750 -7.398193 -0.786892 0 255 0
8.078125 -7.320801 -0.785373 0 255 0
8.062500 -7.243652 -0.783854 0 255 0
8.046875 -7.166748 -0.782335 0 255 0
8.023438 -7.083191 -0.780056 0 255 0
8.007812 -7.006836 -0.778537 0 255 0
7.996094 -6.934113 -0.777398 0 255 0
7.980469 -6.858215 -0.775879 0 255 0
7.964844 -6.782562 -0.774360 0 255 0
7.945312 -6.703857 -0.772461 0 255 0
7.929688 -6.628723 -0.770942 0 255 0
7.976562 -6.605591 -0.775499 0 255 0
8.062500 -6.613770 -0.783854 0 255 0
8.148438 -6.620605 -0.792209 0 255 0
8.242188 -6.632385 -0.801324 0 255 0
8.335938 -6.642700 -0.810438 0 255 0
8.437500 -6.657715 -0.820312 0 255 0
8.539062 -6.671143 -0.830187 0 255 0
11.593750 -8.967041 -1.127170 0 255 0
11.703125 -8.960205 -1.137804 0 255 0
11.804688 -8.945740 -1.147678 0 255 0
11.921875 -8.941406 -1.159071 0 255 0
12.039062 -8.935242 -1.170464 0 255 0
7.710938 -5.662720 -0.749674 0 255 0
7.699219 -5.593964 -0.748535 0 255 0
7.687500 -5.525391 -0.747396 0 255 0
7.675781 -5.457001 -0.746257 0 255 0
7.667969 -5.391541 -0.745497 0 255 0
7.656250 -5.323486 -0.744358 0 255 0
7.644531 -5.255615 -0.743218 0 255 0
7.632812 -5.187927 -0.742079 0 255 0
7.625000 -5.123047 -0.741319 0 255 0
7.613281 -5.055695 -0.740180 0 255 0
7.605469 -4.991089 -0.739421 0 255 0
7.593750 -4.924072 -0.738281 0 255 0
7.585938 -4.859741 -0.737522 0 255 0
7.578125 -4.795532 -0.736762 0 255 0
7.566406 -4.729004 -0.735623 0 255 0
7.558594 -4.665070 -0.734863 0 255 0
7.550781 -4.601257 -0.734104 0 255 0
7.644531 -4.598663 -0.743218 0 255 0
7.878906 -4.678101 -0.766005 0 255 0
8.125000 -4.760742 -0.789931 0 255 0
8.523438 -4.927612 -0.828668 0 255 0
8.507812 -4.852112 -0.827148 0 255 0
8.500000 -4.781250 -0.826389 0 255 0
8.375000 -4.645508 -0.814236 0 255 0
8.367188 -4.575806 -0.813477 0 255 0
7.500000 -4.042969 -0.729167 0 255 0
7.492188 -3.980225 -0.728407 0 255 0
7.484375 -3.917603 -0.727648 0 255 0
7.480469 -3.857117 -0.727268 0 255 0
7.472656 -3.794708 -0.726508 0 255 0
7.468750 -3.734375 -0.726128 0 255 0
7.460938 -3.672180 -0.725369 0 255 0
7.457031 -3.612000 -0.724989 0 255 0
7.453125 -3.551880 -0.724609 0 255 0
7.445312 -3.489990 -0.723850 0 255 0
7.441406 -3.430023 -0.723470 0 255 0
7.437500 -3.370117 -0.723090 0 255 0
7.433594 -3.310272 -0.722711 0 255 0
7.429688 -3.250488 -0.722331 0 255 0
7.429688 -3.192444 -0.722331 0 255 0
7.542969 -3.182190 -0.733344 0 255 0
8.289062 -3.432190 -0.805881 0 255 0
10.359375 -4.208496 -1.007161 0 255 0
11.171875 -4.451294 -1.086155 0 255 0
10.109375 -3.948975 -0.982856 0 255 0
11.109375 -4.252808 -1.080078 0 255 0
8.210938 -3.079102 -0.798286 0 255 0
8.093750 -2.971924 -0.786892 0 255 0
8.007812 -2.877808 -0.778537 0 255 0
7.953125 -2.796021 -0.773220 0 255 0
7.921875 -2.723145 -0.770182 0 255 0
7.902344 -2.654694 -0.768283 0 255 0
7.886719 -2.587830 -0.766764 0 255 0
7.886719 -2.526215 -0.766764 0 255 0
7.886719 -2.464600 -0.766764 0 255 0
7.906250 -2.408936 -0.768663 0 255 0
7.929688 -2.354126 -0.770942 0 255 0
7.964844 -2.302338 -0.774360 0 255 0
7.437500 -2.091797 -0.723090 0 255 0
7.421875 -2.029419 -0.721571 0 255 0
7.406250 -1.967285 -0.720052 0 255 0
9.828125 -2.533813 -0.955512 0 255 0
9.765625 -2.441406 -0.949436 0 255 0
9.710938 -2.351868 -0.944119 0 255 0
8.906250 -2.087402 -0.865885 0 255 0
8.898438 -2.016052 -0.865126 0 255 0
8.875000 -1.941406 -0.862847 0 255 0
9.601562 -2.025330 -0.933485 0 255 0
9.703125 -1.970947 -0.943359 0 255 0
9.796875 -1.913452 -0.952474 0 255 0
9.898438 -1.855957 -0.962348 0 255 0
16.046875 -2.883423 -1.560113 0 255 0
16.031250 -2.755371 -1.558594 0 255 0
16.015625 -2.627563 -1.557075 0 255 0
15.992188 -2.498779 -1.554796 0 255 0
15.976562 -2.371521 -1.553277 0 255 0
15.960938 -2.244507 -1.551758 0 255 0
7.191406 -0.955109 -0.699164 0 255 0
7.183594 -0.897949 -0.698405 0 255 0
7.179688 -0.841370 -0.698025 0 255 0
7.179688 -0.785278 -0.698025 0 255 0
8.687500 -0.882324 -0.844618 0 255 0
8.679688 -0.813721 -0.843859 0 255 0
18.562500 -1.595215 -1.804688 0 255 0
18.546875 -1.448975 -1.803168 0 255 0
18.468750 -1.298584 -1.795573 0 255 0
18.484375 -1.155273 -1.797092 0 255 0
18.546875 -1.014282 -1.803168 0 255 0
18.546875 -0.869385 -1.803168 0 255 0
18.531250 -0.723877 -1.801649 0 255 0
18.531250 -0.579102 -1.801649 0 255 0
18.531250 -0.434326 -1.801649 0 255 0
18.531250 -0.289551 -1.801649 0 255 0
18.531250 -0.144775 -1.801649 0 255 0
18.531250 0.000000 -1.801649 0 255 0
18.531250 0.144775 -1.801649 0 255 0
8.632812 0.134888 -0.839301 0 255 0
7.136719 0.167267 -0.693848 0 255 0
7.136719 0.223022 -0.693848 0 255 0
7.140625 0.278931 -0.694227 0 255 0
7.144531 0.334900 -0.694607 0 255 0
18.562500 1.015137 -1.804688 0 255 0
18.562500 1.160156 -1.804688 0 255 0
18.578125 1.306274 -1.806207 0 255 0
18.593750 1.452637 -1.807726 0 255 0
18.593750 1.597900 -1.807726 0 255 0
18.609375 1.744629 -1.809245 0 255 0
18.625000 1.891602 -1.810764 0 255 0
18.640625 2.038818 -1.812283 0 255 0
18.656250 2.186279 -1.813802 0 255 0
18.687500 2.335938 -1.816840 0 255 0
18.703125 2.484009 -1.818359 0 255 0
18.718750 2.632324 -1.819878 0 255 0
8.750000 1.298828 -0.850694 0 255 0
8.757812 1.368408 -0.851454 0 255 0
8.765625 1.438110 -0.852214 0 255 0
18.812500 3.233398 -1.828993 0 255 0
7.250000 1.302734 -0.704861 0 255 0
7.261719 1.361572 -0.706000 0 255 0
7.273438 1.420593 -0.707140 0 255 0
7.285156 1.479797 -0.708279 0 255 0
18.921875 3.991333 -1.839627 0 255 0
16.265625 3.558105 -1.581380 0 255 0
18.984375 4.301147 -1.845703 0 255 0
19.015625 4.456787 -1.848741 0 255 0
19.046875 4.612915 -1.851780 0 255 0
16.218750 4.054688 -1.576823 0 255 0
19.125000 4.930664 -1.859375 0 255 0
19.156250 5.088379 -1.862413 0 255 0
8.968750 2.452393 -0.871962 0 255 0
8.992188 2.529053 -0.874240 0 255 0
8.250000 2.384766 -0.802083 0 255 0
19.312500 5.733398 -1.877604 0 255 0
19.359375 5.898560 -1.882161 0 255 0
19.406250 6.064453 -1.886719 0 255 0
19.109375 6.120972 -1.857856 0 255 0
7.531250 2.471191 -0.732205 0 255 0
