4.097656 -0.288116 2.617947 0 255 0
4.097656 -0.256104 2.617947 0 255 0
4.093750 -0.223877 2.615451 0 255 0
4.093750 -0.191895 2.615451 0 255 0
4.093750 -0.159912 2.615451 0 255 0
4.093750 -0.127930 2.615451 0 255 0
4.089844 -0.095856 2.612956 0 255 0
4.089844 -0.063904 2.612956 0 255 0
4.089844 -0.031952 2.612956 0 255 0
4.089844 0.000000 2.612956 0 255 0
4.089844 0.031952 2.612956 0 255 0
4.089844 0.063904 2.612956 0 255 0
4.093750 0.095947 2.615451 0 255 0
4.093750 0.127930 2.615451 0 255 0
4.093750 0.159912 2.615451 0 255 0
4.093750 0.191895 2.615451 0 255 0
4.097656 0.224091 2.617947 0 255 0
4.097656 0.256104 2.617947 0 255 0
4.101562 0.288391 2.620443 0 255 0
4.101562 0.320435 2.620443 0 255 0
4.105469 0.352814 2.622938 0 255 0
4.109375 0.385254 2.625434 0 255 0
4.109375 0.417358 2.625434 0 255 0
4.113281 0.449890 2.627930 0 255 0
4.117188 0.482483 2.630425 0 255 0
4.121094 0.515137 2.632921 0 255 0
1.760742 0.233849 1.124919 0 255 0
1.750977 0.246231 1.118679 0 255 0
1.742188 0.258606 1.113064 0 255 0
1.733398 0.270844 1.107449 0 255 0
1.727539 0.283424 1.103706 0 255 0
1.723633 0.296249 1.101210 0 255 0
1.722656 0.309540 1.100586 0 255 0
1.726562 0.323730 1.103082 0 255 0
1.736328 0.339127 1.109321 0 255 0
1.743164 0.354080 1.113688 0 255 0
1.752930 0.369759 1.119927 0 255 0
1.764648 0.386017 1.127414 0 255 0
1.785156 0.404449 1.140516 0 255 0
4.191406 0.982361 2.677843 0 255 0
4.199219 1.016998 2.682834 0 255 0
4.207031 1.051758 2.687826 0 255 0
4.210938 1.085632 2.690321 0 255 0
4.218750 1.120605 2.695312 0 255 0
4.226562 1.155701 2.700304 0 255 0
4.234375 1.190918 2.705295 0 255 0
4.242188 1.226257 2.710286 0 255 0
4.250000 1.261719 2.715278 0 255 0
4.257812 1.297302 2.720269 0 255 0
4.269531 1.334229 2.727756 0 255 0
4.277344 1.370087 2.732747 0 255 0
4.285156 1.406067 2.737739 0 255 0
4.292969 1.442169 2.742730 0 255 0
4.304688 1.479736 2.750217 0 255 0
4.312500 1.516113 2.755208 0 255 0
4.324219 1.554016 2.762695 0 255 0
4.332031 1.590668 2.767687 0 255 0
4.343750 1.628906 2.775174 0 255 0
4.351562 1.665833 2.780165 0 255 0
4.363281 1.704407 2.787652 0 255 0
4.375000 1.743164 2.795139 0 255 0
4.382812 1.780518 2.800130 0 255 0
4.394531 1.819611 2.807617 0 255 0
4.406250 1.858887 2.815104 0 255 0
4.417969 1.898346 2.822591 0 255 0
4.429688 1.937988 2.830078 0 255 0
4.441406 1.977814 2.837565 0 255 0
4.453125 2.017822 2.845052 0 255 0
4.464844 2.058014 2.852539 0 255 0
4.476562 2.098389 2.860026 0 255 0
4.488281 2.138947 2.867513 0 255 0
4.500000 2.179688 2.875000 0 255 0
4.515625 2.222534 2.884983 0 255 0
4.527344 2.263672 2.892470 0 255 0
4.539062 2.304993 2.899957 0 255 0
2.302734 1.187347 1.471191 0 255 0
2.275391 1.191025 1.453722 0 255 0
2.248047 1.194275 1.436252 0 255 0
2.222656 1.198151 1.420030 0 255 0
2.197266 1.201630 1.403809 0 255 0
2.173828 1.205795 1.388835 0 255 0
2.150391 1.209595 1.373861 0 255 0
2.126953 1.213028 1.358887 0 255 0
2.105469 1.217224 1.345161 0 255 0
2.083984 1.221085 1.331434 0 255 0
2.062500 1.224609 1.317708 0 255 0
2.042969 1.228973 1.305230 0 255 0
2.023438 1.233032 1.292752 0 255 0
2.003906 1.236786 1.280273 0 255 0
1.985352 1.240845 1.268419 0 255 0
1.967773 1.245232 1.257189 0 255 0
1.950195 1.249344 1.245958 0 255 0
1.932617 1.253181 1.234728 0 255 0
1.916016 1.257385 1.224121 0 255 0
1.900391 1.261978 1.214138 0 255 0
1.884766 1.266327 1.204156 0 255 0
1.869141 1.270432 1.194173 0 255 0
1.854492 1.274963 1.184814 0 255 0
1.839844 1.279266 1.175456 0 255 0
1.825195 1.283340 1.166097 0 255 0
1.811523 1.287880 1.157362 0 255 0
1.797852 1.292206 1.148627 0 255 0
1.785156 1.297028 1.140516 0 255 0
1.772461 1.301651 1.132406 0 255 0
1.759766 1.306076 1.124295 0 255 0
1.747070 1.310303 1.116184 0 255 0
1.735352 1.315071 1.108697 0 255 0
1.723633 1.319656 1.101210 0 255 0
1.712891 1.324814 1.094347 0 255 0
1.701172 1.329041 1.086860 0 255 0
1.690430 1.333855 1.079997 0 255 0
1.679688 1.338501 1.073134 0 255 0
1.669922 1.343765 1.066895 0 255 0
1.659180 1.348083 1.060031 0 255 0
1.649414 1.353035 1.053792 0 255 0
1.639648 1.357834 1.047553 0 255 0
1.630859 1.363297 1.041938 0 255 0
1.621094 1.367798 1.035699 0 255 0
1.612305 1.372978 1.030084 0 255 0
1.603516 1.378021 1.024468 0 255 0
1.594727 1.382927 1.018853 0 255 0
1.585938 1.387695 1.013238 0 255 0
1.578125 1.393188 1.008247 0 255 0
1.569336 1.397690 1.002631 0 255 0
1.561523 1.402931 0.997640 0 255 0
1.553711 1.408051 0.992649 0 255 0
1.546875 1.413940 0.988281 0 255 0
1.541992 1.421524 0.985162 0 255 0
1.547852 1.439018 0.988905 0 255 0
1.553711 1.456604 0.992649 0 255 0
1.559570 1.474281 0.996392 0 255 0
1.565430 1.492050 1.000136 0 255 0
1.570312 1.508972 1.003255 0 255 0
1.576172 1.526917 1.006999 0 255 0
1.582031 1.544952 1.010742 0 255 0
1.587891 1.563080 1.014486 0 255 0
1.593750 1.581299 1.018229 0 255 0
5.492188 -5.492188 3.585178 0 255 0
5.472656 -5.429901 3.572428 0 255 0
5.453125 -5.367920 3.559679 0 255 0
5.433594 -5.306244 3.546929 0 255 0
5.414062 -5.244873 3.534180 0 255 0
5.394531 -5.183807 3.521430 0 255 0
5.375000 -5.123047 3.508681 0 255 0
5.355469 -5.062592 3.495931 0 255 0
5.335938 -5.002441 3.483181 0 255 0
5.316406 -4.942596 3.470432 0 255 0
5.296875 -4.883057 3.457682 0 255 0
5.277344 -4.823822 3.444933 0 255 0
5.257812 -4.764893 3.432183 0 255 0
5.242188 -4.709778 3.421984 0 255 0
5.222656 -4.651428 3.409234 0 255 0
5.203125 -4.593384 3.396484 0 255 0
5.183594 -4.535645 3.383735 0 255 0
5.164062 -4.478210 3.370985 0 255 0
5.148438 -4.424438 3.360786 0 255 0
5.128906 -4.367584 3.348036 0 255 0
5.109375 -4.311035 3.335286 0 255 0
5.093750 -4.258057 3.325087 0 255 0
5.074219 -4.202087 3.312337 0 255 0
5.054688 -4.146423 3.299588 0 255 0
5.039062 -4.094238 3.289388 0 255 0
5.019531 -4.039154 3.276638 0 255 0
3.248047 -2.588287 2.120253 0 255 0
3.246094 -2.561371 2.118978 0 255 0
3.242188 -2.532959 2.116428 0 255 0
3.238281 -2.504608 2.113878 0 255 0
3.236328 -2.477814 2.112603 0 255 0
3.232422 -2.449570 2.110053 0 255 0
3.230469 -2.422852 2.108778 0 255 0
3.226562 -2.394714 2.106228 0 255 0
3.224609 -2.368073 2.104953 0 255 0
3.222656 -2.341461 2.103678 0 255 0
3.218750 -2.313477 2.101128 0 255 0
3.216797 -2.286942 2.099854 0 255 0
3.214844 -2.260437 2.098579 0 255 0
3.210938 -2.232605 2.096029 0 255 0
3.208984 -2.206177 2.094754 0 255 0
3.207031 -2.179779 2.093479 0 255 0
3.205078 -2.153412 2.092204 0 255 0
3.203125 -2.127075 2.090929 0 255 0
3.201172 -2.100769 2.089654 0 255 0
3.199219 -2.074493 2.088379 0 255 0
3.197266 -2.048248 2.087104 0 255 0
3.195312 -2.022034 2.085829 0 255 0
3.193359 -1.995850 2.084554 0 255 0
3.191406 -1.969696 2.083279 0 255 0
3.189453 -1.943573 2.082004 0 255 0
3.189453 -1.918655 2.082004 0 255 0
3.187500 -1.892578 2.080729 0 255 0
3.185547 -1.866531 2.079454 0 255 0
3.185547 -1.841644 2.079454 0 255 0
3.183594 -1.815643 2.078179 0 255 0
3.183594 -1.790771 2.078179 0 255 0
3.181641 -1.764816 2.076904 0 255 0
3.181641 -1.739960 2.076904 0 255 0
3.179688 -1.714050 2.075629 0 255 0
3.179688 -1.689209 2.075629 0 255 0
3.179688 -1.664368 2.075629 0 255 0
3.179688 -1.639526 2.075629 0 255 0
3.179688 -1.614685 2.075629 0 255 0
3.177734 -1.588867 2.074354 0 255 0
3.177734 -1.564041 2.074354 0 255 0
3.179688 -1.540161 2.075629 0 255 0
3.179688 -1.515320 2.075629 0 255 0
3.179688 -1.490479 2.075629 0 255 0
3.179688 -1.465637 2.075629 0 255 0
3.179688 -1.440796 2.075629 0 255 0
3.181641 -1.416824 2.076904 0 255 0
3.181641 -1.391968 2.076904 0 255 0
3.183594 -1.367950 2.078179 0 255 0
3.183594 -1.343079 2.078179 0 255 0
3.185547 -1.319016 2.079454 0 255 0
3.187500 -1.294922 2.080729 0 255 0
3.187500 -1.270020 2.080729 0 255 0
3.189453 -1.245880 2.082004 0 255 0
3.191406 -1.221710 2.083279 0 255 0
3.193359 -1.197510 2.084554 0 255 0
4.242188 -1.557678 2.769206 0 255 0
4.230469 -1.520325 2.761556 0 255 0
4.222656 -1.484528 2.756456 0 255 0
4.214844 -1.448853 2.751356 0 255 0
4.203125 -1.411987 2.743707 0 255 0
4.195312 -1.376587 2.738607 0 255 0
4.187500 -1.341309 2.733507 0 255 0
4.179688 -1.306152 2.728407 0 255 0
4.171875 -1.271118 2.723307 0 255 0
4.164062 -1.236206 2.718207 0 255 0
4.156250 -1.201416 2.713108 0 255 0
4.148438 -1.166748 2.708008 0 255 0
4.140625 -1.132202 2.702908 0 255 0
4.132812 -1.097778 2.697808 0 255 0
4.128906 -1.064484 2.695258 0 255 0
4.121094 -1.030273 2.690158 0 255 0
4.113281 -0.996185 2.685059 0 255 0
4.109375 -0.963135 2.682509 0 255 0
4.101562 -0.929260 2.677409 0 255 0
4.093750 -0.895508 2.672309 0 255 0
4.089844 -0.862701 2.669759 0 255 0
4.085938 -0.829956 2.667209 0 255 0
4.078125 -0.796509 2.662109 0 255 0
4.074219 -0.763916 2.659559 0 255 0
4.070312 -0.731384 2.657010 0 255 0
4.062500 -0.698242 2.651910 0 255 0
4.058594 -0.665863 2.649360 0 255 0
4.054688 -0.633545 2.646810 0 255 0
4.050781 -0.601288 2.644260 0 255 0
4.046875 -0.569092 2.641710 0 255 0
4.042969 -0.536957 2.639160 0 255 0
4.039062 -0.504883 2.636610 0 255 0
4.039062 -0.473328 2.636610 0 255 0
4.035156 -0.441345 2.634060 0 255 0
4.031250 -0.409424 2.631510 0 255 0
4.027344 -0.377563 2.628961 0 255 0
4.027344 -0.346100 2.628961 0 255 0
4.023438 -0.314331 2.626411 0 255 0
4.023438 -0.282898 2.626411 0 255 0
4.019531 -0.251221 2.623861 0 255 0
4.019531 -0.219818 2.623861 0 255 0
4.019531 -0.188416 2.623861 0 255 0
4.015625 -0.156860 2.621311 0 255 0
4.015625 -0.125488 2.621311 0 255 0
4.015625 -0.094116 2.621311 0 255 0
4.015625 -0.062744 2.621311 0 255 0
4.015625 -0.031372 2.621311 0 255 0
4.015625 0.000000 2.621311 0 255 0
4.015625 0.031372 2.621311 0 255 0
4.015625 0.062744 2.621311 0 255 0
4.015625 0.094116 2.621311 0 255 0
4.015625 0.125488 2.621311 0 255 0
4.019531 0.157013 2.623861 0 255 0
4.019531 0.188416 2.623861 0 255 0
4.019531 0.219818 2.623861 0 255 0
4.023438 0.251465 2.626411 0 255 0
4.023438 0.282898 2.626411 0 255 0
4.027344 0.314636 2.628961 0 255 0
4.027344 0.346100 2.628961 0 255 0
4.031250 0.377930 2.631510 0 255 0
4.035156 0.409821 2.634060 0 255 0
4.039062 0.441772 2.636610 0 255 0
4.039062 0.473328 2.636610 0 255 0
1.766602 0.220825 1.153198 0 255 0
1.750977 0.232552 1.142999 0 255 0
1.744141 0.245270 1.138536 0 255 0
1.738281 0.258026 1.134711 0 255 0
1.735352 0.271149 1.132799 0 255 0
1.731445 0.284065 1.130249 0 255 0
1.729492 0.297256 1.128974 0 255 0
1.731445 0.311119 1.130249 0 255 0
1.737305 0.325745 1.134074 0 255 0
1.743164 0.340462 1.137899 0 255 0
1.749023 0.355270 1.141724 0 255 0
1.758789 0.370995 1.148098 0 255 0
1.771484 0.387512 1.156386 0 255 0
4.109375 0.931030 2.682509 0 255 0
4.113281 0.964050 2.685059 0 255 0
4.121094 0.998077 2.690158 0 255 0
4.128906 1.032227 2.695258 0 255 0
4.132812 1.065491 2.697808 0 255 0
4.140625 1.099854 2.702908 0 255 0
4.148438 1.134338 2.708008 0 255 0
4.156250 1.168945 2.713108 0 255 0
4.164062 1.203674 2.718207 0 255 0
4.171875 1.238525 2.723307 0 255 0
4.179688 1.273499 2.728407 0 255 0
4.187500 1.308594 2.733507 0 255 0
4.195312 1.343811 2.738607 0 255 0
4.203125 1.379150 2.743707 0 255 0
4.214844 1.415924 2.751356 0 255 0
4.222656 1.451538 2.756456 0 255 0
4.230469 1.487274 2.761556 0 255 0
4.242188 1.524536 2.769206 0 255 0
4.250000 1.560547 2.774306 0 255 0
4.261719 1.598145 2.781955 0 255 0
4.269531 1.634430 2.787055 0 255 0
4.281250 1.672363 2.794705 0 255 0
4.289062 1.708923 2.799805 0 255 0
4.300781 1.747192 2.807454 0 255 0
4.312500 1.785645 2.815104 0 255 0
4.324219 1.824280 2.822754 0 255 0
4.332031 1.861420 2.827854 0 255 0
4.343750 1.900391 2.835503 0 255 0
4.355469 1.939545 2.843153 0 255 0
4.367188 1.978882 2.850803 0 255 0
4.378906 2.018402 2.858453 0 255 0
4.390625 2.058105 2.866102 0 255 0
4.402344 2.097992 2.873752 0 255 0
4.414062 2.138062 2.881402 0 255 0
4.429688 2.180237 2.891602 0 255 0
4.441406 2.220703 2.899251 0 255 0
4.453125 2.261353 2.906901 0 255 0
2.306641 1.189362 1.505724 0 255 0
2.279297 1.193069 1.487874 0 255 0
2.251953 1.196350 1.470025 0 255 0
2.226562 1.200256 1.453451 0 255 0
2.201172 1.203766 1.436876 0 255 0
2.177734 1.207962 1.421577 0 255 0
2.154297 1.211792 1.406277 0 255 0
2.130859 1.215256 1.390978 0 255 0
2.109375 1.219482 1.376953 0 255 0
2.087891 1.223373 1.362929 0 255 0
2.066406 1.226929 1.348904 0 255 0
2.046875 1.231323 1.336155 0 255 0
2.027344 1.235413 1.323405 0 255 0
2.007812 1.239197 1.310655 0 255 0
1.989258 1.243286 1.298543 0 255 0
1.970703 1.247086 1.286431 0 255 0
1.953125 1.251221 1.274957 0 255 0
1.936523 1.255714 1.264119 0 255 0
1.919922 1.259949 1.253282 0 255 0
1.903320 1.263924 1.242445 0 255 0
1.887695 1.268295 1.232246 0 255 0
1.872070 1.272423 1.222046 0 255 0
1.857422 1.276978 1.212484 0 255 0
1.842773 1.281303 1.202922 0 255 0
1.828125 1.285400 1.193359 0 255 0
1.814453 1.289963 1.184435 0 255 0
1.800781 1.294312 1.175510 0 255 0
1.788086 1.299156 1.167223 0 255 0
1.775391 1.303802 1.158936 0 255 0
1.762695 1.308250 1.150648 0 255 0
1.750000 1.312500 1.142361 0 255 0
1.738281 1.317291 1.134711 0 255 0
1.726562 1.321899 1.127062 0 255 0
1.714844 1.326324 1.119412 0 255 0
1.704102 1.331329 1.112400 0 255 0
1.693359 1.336166 1.105387 0 255 0
1.682617 1.340836 1.098375 0 255 0
1.671875 1.345337 1.091363 0 255 0
1.662109 1.350464 1.084988 0 255 0
1.652344 1.355438 1.078613 0 255 0
1.642578 1.360260 1.072238 0 255 0
1.632812 1.364929 1.065864 0 255 0
1.624023 1.370270 1.060126 0 255 0
1.614258 1.374641 1.053752 0 255 0
1.605469 1.379700 1.048014 0 255 0
1.596680 1.384621 1.042277 0 255 0
1.588867 1.390259 1.037177 0 255 0
1.580078 1.394913 1.031440 0 255 0
1.572266 1.400299 1.026340 0 255 0
1.564453 1.405563 1.021240 0 255 0
1.556641 1.410706 1.016140 0 255 0
1.548828 1.415726 1.011041 0 255 0
1.541016 1.420624 1.005941 0 255 0
1.534180 1.426308 1.001478 0 255 0
1.526367 1.430969 0.996379 0 255 0
1.528320 1.444740 0.997654 0 255 0
1.534180 1.462265 1.001478 0 255 0
1.540039 1.479881 1.005303 0 255 0
1.545898 1.497589 1.009128 0 255 0
1.550781 1.514435 1.012316 0 255 0
1.556641 1.532318 1.016140 0 255 0
1.562500 1.550293 1.019965 0 255 0
5.386719 -5.386719 3.591146 0 255 0
5.367188 -5.325256 3.578125 0 255 0
5.347656 -5.264099 3.565104 0 255 0
5.328125 -5.203247 3.552083 0 255 0
5.308594 -5.142700 3.539062 0 255 0
5.289062 -5.082458 3.526042 0 255 0
5.273438 -5.026245 3.515625 0 255 0
5.253906 -4.966583 3.502604 0 255 0
5.234375 -4.907227 3.489583 0 255 0
5.214844 -4.848175 3.476562 0 255 0
5.195312 -4.789429 3.463542 0 255 0
5.175781 -4.730988 3.450521 0 255 0
5.160156 -4.676392 3.440104 0 255 0
5.140625 -4.618530 3.427083 0 255 0
5.121094 -4.560974 3.414062 0 255 0
5.101562 -4.503723 3.401042 0 255 0
5.085938 -4.450195 3.390625 0 255 0
5.066406 -4.393524 3.377604 0 255 0
5.046875 -4.337158 3.364583 0 255 0
5.031250 -4.284424 3.354167 0 255 0
5.011719 -4.228638 3.341146 0 255 0
4.996094 -4.176422 3.330729 0 255 0
4.976562 -4.121216 3.317708 0 255 0
4.960938 -4.069519 3.307292 0 255 0
4.941406 -4.014893 3.294271 0 255 0
4.925781 -3.963715 3.283854 0 255 0
3.253906 -2.592957 2.169271 0 255 0
3.250000 -2.564453 2.166667 0 255 0
3.248047 -2.537537 2.165365 0 255 0
3.244141 -2.509140 2.162760 0 255 0
3.242188 -2.482300 2.161458 0 255 0
3.238281 -2.454010 2.158854 0 255 0
3.236328 -2.427246 2.157552 0 255 0
3.232422 -2.399063 2.154948 0 255 0
3.230469 -2.372375 2.153646 0 255 0
3.226562 -2.344299 2.151042 0 255 0
3.224609 -2.317688 2.149740 0 255 0
3.222656 -2.291107 2.148438 0 255 0
3.220703 -2.264557 2.147135 0 255 0
3.216797 -2.236679 2.144531 0 255 0
3.214844 -2.210205 2.143229 0 255 0
3.212891 -2.183762 2.141927 0 255 0
3.210938 -2.157349 2.140625 0 255 0
3.208984 -2.130966 2.139323 0 255 0
3.207031 -2.104614 2.138021 0 255 0
3.205078 -2.078293 2.136719 0 255 0
3.203125 -2.052002 2.135417 0 255 0
3.201172 -2.025742 2.134115 0 255 0
3.199219 -1.999512 2.132812 0 255 0
3.197266 -1.973312 2.131510 0 255 0
3.197266 -1.948334 2.131510 0 255 0
3.195312 -1.922180 2.130208 0 255 0
3.193359 -1.896057 2.128906 0 255 0
3.191406 -1.869965 2.127604 0 255 0
3.191406 -1.845032 2.127604 0 255 0
3.189453 -1.818985 2.126302 0 255 0
3.189453 -1.794067 2.126302 0 255 0
3.187500 -1.768066 2.125000 0 255 0
3.187500 -1.743164 2.125000 0 255 0
3.187500 -1.718262 2.125000 0 255 0
3.185547 -1.692322 2.123698 0 255 0
3.185547 -1.667435 2.123698 0 255 0
3.185547 -1.642548 2.123698 0 255 0
3.185547 -1.617661 2.123698 0 255 0
3.185547 -1.592773 2.123698 0 255 0
3.185547 -1.567886 2.123698 0 255 0
3.185547 -1.542999 2.123698 0 255 0
3.185547 -1.518112 2.123698 0 255 0
3.185547 -1.493225 2.123698 0 255 0
3.187500 -1.469238 2.125000 0 255 0
3.187500 -1.444336 2.125000 0 255 0
3.187500 -1.419434 2.125000 0 255 0
3.189453 -1.395386 2.126302 0 255 0
3.189453 -1.370468 2.126302 0 255 0
3.191406 -1.346375 2.127604 0 255 0
3.193359 -1.322250 2.128906 0 255 0
3.193359 -1.297302 2.128906 0 255 0
3.195312 -1.273132 2.130208 0 255 0
3.197266 -1.248932 2.131510 0 255 0
3.199219 -1.224701 2.132812 0 255 0
3.201172 -1.200439 2.134115 0 255 0
4.164062 -1.528992 2.776042 0 255 0
4.152344 -1.492249 2.768229 0 255 0
4.144531 -1.457062 2.763021 0 255 0
4.136719 -1.421997 2.757812 0 255 0
4.128906 -1.387054 2.752604 0 255 0
4.121094 -1.352234 2.747396 0 255 0
4.109375 -1.316284 2.739583 0 255 0
4.101562 -1.281738 2.734375 0 255 0
4.093750 -1.247314 2.729167 0 255 0
4.085938 -1.213013 2.723958 0 255 0
4.078125 -1.178833 2.718750 0 255 0
4.074219 -1.145874 2.716146 0 255 0
4.066406 -1.111908 2.710938 0 255 0
4.058594 -1.078064 2.705729 0 255 0
4.050781 -1.044342 2.700521 0 255 0
4.046875 -1.011719 2.697917 0 255 0
4.039062 -0.978210 2.692708 0 255 0
4.031250 -0.944824 2.687500 0 255 0
4.027344 -0.912445 2.684896 0 255 0
4.019531 -0.879272 2.679688 0 255 0
4.015625 -0.847046 2.677083 0 255 0
4.011719 -0.814880 2.674479 0 255 0
4.003906 -0.782013 2.669271 0 255 0
4.000000 -0.750000 2.666667 0 255 0
3.996094 -0.718048 2.664062 0 255 0
3.992188 -0.686157 2.661458 0 255 0
3.986328 -0.654007 2.657552 0 255 0
3.982422 -0.622253 2.654948 0 255 0
3.978516 -0.590561 2.652344 0 255 0
3.974609 -0.558929 2.649740 0 255 0
3.970703 -0.527359 2.647135 0 255 0
3.968750 -0.496094 2.645833 0 255 0
3.964844 -0.464630 2.643229 0 255 0
3.962891 -0.433441 2.641927 0 255 0
3.958984 -0.402084 2.639323 0 255 0
3.957031 -0.370972 2.638021 0 255 0
3.955078 -0.339890 2.636719 0 255 0
3.953125 -0.308838 2.635417 0 255 0
3.951172 -0.277817 2.634115 0 255 0
3.949219 -0.246826 2.632812 0 255 0
3.947266 -0.215866 2.631510 0 255 0
3.945312 -0.184937 2.630208 0 255 0
3.945312 -0.154114 2.630208 0 255 0
3.943359 -0.123230 2.628906 0 255 0
3.943359 -0.092422 2.628906 0 255 0
3.943359 -0.061615 2.628906 0 255 0
3.943359 -0.030807 2.628906 0 255 0
3.943359 0.000000 2.628906 0 255 0
3.943359 0.030807 2.628906 0 255 0
3.943359 0.061615 2.628906 0 255 0
3.943359 0.092422 2.628906 0 255 0
3.945312 0.123291 2.630208 0 255 0
3.945312 0.154114 2.630208 0 255 0
3.947266 0.185028 2.631510 0 255 0
3.949219 0.215973 2.632812 0 255 0
3.951172 0.246948 2.634115 0 255 0
3.953125 0.277954 2.635417 0 255 0
3.955078 0.308990 2.636719 0 255 0
3.957031 0.340057 2.638021 0 255 0
3.958984 0.371155 2.639323 0 255 0
3.962891 0.402481 2.641927 0 255 0
3.964844 0.433655 2.643229 0 255 0
1.772461 0.207710 1.181641 0 255 0
1.753906 0.219238 1.169271 0 255 0
1.743164 0.231514 1.162109 0 255 0
1.738281 0.244446 1.158854 0 255 0
1.735352 0.257591 1.156901 0 255 0
1.735352 0.271149 1.156901 0 255 0
1.737305 0.285027 1.158203 0 255 0
1.737305 0.298599 1.158203 0 255 0
1.740234 0.312698 1.160156 0 255 0
1.745117 0.327209 1.163411 0 255 0
1.748047 0.341415 1.165365 0 255 0
1.755859 0.356659 1.170573 0 255 0
1.765625 0.372437 1.177083 0 255 0
1.782227 0.389862 1.188151 0 255 0
4.031250 0.913330 2.687500 0 255 0
4.039062 0.946655 2.692708 0 255 0
4.046875 0.980103 2.697917 0 255 0
4.050781 1.012695 2.700521 0 255 0
4.058594 1.046356 2.705729 0 255 0
4.066406 1.080139 2.710938 0 255 0
4.074219 1.114044 2.716146 0 255 0
4.078125 1.146973 2.718750 0 255 0
4.085938 1.181091 2.723958 0 255 0
4.093750 1.215332 2.729167 0 255 0
4.101562 1.249695 2.734375 0 255 0
4.109375 1.284180 2.739583 0 255 0
4.121094 1.320038 2.747396 0 255 0
4.128906 1.354797 2.752604 0 255 0
4.136719 1.389679 2.757812 0 255 0
4.144531 1.424683 2.763021 0 255 0
4.152344 1.459808 2.768229 0 255 0
4.164062 1.496460 2.776042 0 255 0
4.171875 1.531860 2.781250 0 255 0
4.183594 1.568848 2.789062 0 255 0
4.191406 1.604523 2.794271 0 255 0
4.203125 1.641846 2.802083 0 255 0
4.210938 1.677795 2.807292 0 255 0
4.222656 1.715454 2.815104 0 255 0
4.234375 1.753296 2.822917 0 255 0
4.242188 1.789673 2.828125 0 255 0
4.253906 1.827850 2.835938 0 255 0
4.265625 1.866211 2.843750 0 255 0
4.277344 1.904755 2.851562 0 255 0
4.289062 1.943481 2.859375 0 255 0
4.296875 1.980591 2.864583 0 255 0
4.308594 2.019653 2.872396 0 255 0
4.320312 2.058899 2.880208 0 255 0
4.332031 2.098328 2.888021 0 255 0
4.347656 2.139862 2.898438 0 255 0
4.359375 2.179688 2.906250 0 255 0
4.371094 2.219696 2.914062 0 255 0
2.312500 1.192383 1.541667 0 255 0
2.283203 1.195114 1.522135 0 255 0
2.257812 1.199463 1.505208 0 255 0
2.230469 1.202362 1.486979 0 255 0
2.205078 1.205902 1.470052 0 255 0
2.181641 1.210129 1.454427 0 255 0
2.158203 1.213989 1.438802 0 255 0
2.134766 1.217484 1.423177 0 255 0
2.113281 1.221741 1.408854 0 255 0
2.091797 1.225662 1.394531 0 255 0
2.070312 1.229248 1.380208 0 255 0
2.050781 1.233673 1.367188 0 255 0
2.031250 1.237793 1.354167 0 255 0
2.011719 1.241608 1.341146 0 255 0
1.993164 1.245728 1.328776 0 255 0
1.974609 1.249557 1.316406 0 255 0
1.957031 1.253723 1.304688 0 255 0
1.940430 1.258247 1.293620 0 255 0
1.922852 1.261871 1.281901 0 255 0
1.907227 1.266518 1.271484 0 255 0
1.891602 1.270920 1.261068 0 255 0
1.875977 1.275078 1.250651 0 255 0
1.860352 1.278992 1.240234 0 255 0
1.845703 1.283340 1.230469 0 255 0
1.832031 1.288147 1.221354 0 255 0
1.818359 1.292740 1.212240 0 255 0
1.804688 1.297119 1.203125 0 255 0
1.791016 1.301285 1.194010 0 255 0
1.778320 1.305954 1.185547 0 255 0
1.765625 1.310425 1.177083 0 255 0
1.752930 1.314697 1.168620 0 255 0
1.741211 1.319511 1.160807 0 255 0
1.729492 1.324142 1.152995 0 255 0
1.717773 1.328590 1.145182 0 255 0
1.707031 1.333618 1.138021 0 255 0
1.696289 1.338478 1.130859 0 255 0
1.685547 1.343170 1.123698 0 255 0
1.674805 1.347694 1.116536 0 255 0
1.665039 1.352844 1.110026 0 255 0
1.655273 1.357841 1.103516 0 255 0
1.645508 1.362686 1.097005 0 255 0
1.635742 1.367378 1.090495 0 255 0
1.625977 1.371918 1.083984 0 255 0
1.617188 1.377136 1.078125 0 255 0
1.608398 1.382217 1.072266 0 255 0
1.599609 1.387161 1.066406 0 255 0
1.590820 1.391968 1.060547 0 255 0
1.583008 1.397499 1.055339 0 255 0
1.574219 1.402039 1.049479 0 255 0
1.566406 1.407318 1.044271 0 255 0
1.558594 1.412476 1.039062 0 255 0
1.550781 1.417511 1.033854 0 255 0
1.542969 1.422424 1.028646 0 255 0
1.536133 1.428123 1.024089 0 255 0
1.529297 1.433716 1.019531 0 255 0
1.521484 1.438278 1.014323 0 255 0
1.514648 1.443649 1.009766 0 255 0
1.509766 1.450790 1.006510 0 255 0
1.515625 1.468262 1.010417 0 255 0
1.521484 1.485825 1.014323 0 255 0
1.526367 1.502518 1.017578 0 255 0
1.532227 1.520256 1.021484 0 255 0
5.285156 -5.285156 3.596842 0 255 0
5.265625 -5.224487 3.583550 0 255 0
5.250000 -5.167969 3.572917 0 255 0
5.230469 -5.107880 3.559625 0 255 0
5.210938 -5.048096 3.546332 0 255 0
5.191406 -4.988617 3.533040 0 255 0
5.171875 -4.929443 3.519748 0 255 0
5.152344 -4.870575 3.506456 0 255 0
5.136719 -4.815674 3.495822 0 255 0
5.117188 -4.757385 3.482530 0 255 0
5.097656 -4.699402 3.469238 0 255 0
5.082031 -4.645294 3.458605 0 255 0
5.062500 -4.587891 3.445312 0 255 0
5.042969 -4.530792 3.432020 0 255 0
5.027344 -4.477478 3.421387 0 255 0
5.007812 -4.420959 3.408095 0 255 0
4.988281 -4.364746 3.394803 0 255 0
4.972656 -4.312225 3.384169 0 255 0
4.953125 -4.256592 3.370877 0 255 0
4.937500 -4.204590 3.360243 0 255 0
4.917969 -4.149536 3.346951 0 255 0
4.902344 -4.098053 3.336317 0 255 0
4.886719 -4.046814 3.325684 0 255 0
4.867188 -3.992615 3.312391 0 255 0
4.851562 -3.941895 3.301758 0 255 0
4.832031 -3.888275 3.288466 0 255 0
3.259766 -2.597626 2.218452 0 255 0
3.255859 -2.569077 2.215793 0 255 0
3.253906 -2.542114 2.214464 0 255 0
3.250000 -2.513672 2.211806 0 255 0
3.248047 -2.486786 2.210476 0 255 0
3.244141 -2.458450 2.207818 0 255 0
3.242188 -2.431641 2.206489 0 255 0
3.238281 -2.403412 2.203830 0 255 0
3.236328 -2.376678 2.202501 0 255 0
3.232422 -2.348557 2.199843 0 255 0
3.230469 -2.321899 2.198513 0 255 0
3.228516 -2.295273 2.197184 0 255 0
3.226562 -2.268677 2.195855 0 255 0
3.222656 -2.240753 2.193197 0 255 0
3.220703 -2.214233 2.191867 0 255 0
3.218750 -2.187744 2.190538 0 255 0
3.216797 -2.161285 2.189209 0 255 0
3.214844 -2.134857 2.187880 0 255 0
3.212891 -2.108459 2.186551 0 255 0
3.210938 -2.082092 2.185221 0 255 0
3.208984 -2.055756 2.183892 0 255 0
3.207031 -2.029449 2.182563 0 255 0
3.205078 -2.003174 2.181234 0 255 0
3.205078 -1.978134 2.181234 0 255 0
3.203125 -1.951904 2.179905 0 255 0
3.201172 -1.925705 2.178575 0 255 0
3.199219 -1.899536 2.177246 0 255 0
3.199219 -1.874542 2.177246 0 255 0
3.197266 -1.848419 2.175917 0 255 0
3.197266 -1.823441 2.175917 0 255 0
3.195312 -1.797363 2.174588 0 255 0
3.195312 -1.772400 2.174588 0 255 0
3.193359 -1.746368 2.173258 0 255 0
3.193359 -1.721420 2.173258 0 255 0
3.193359 -1.696472 2.173258 0 255 0
3.193359 -1.671524 2.173258 0 255 0
3.193359 -1.646576 2.173258 0 255 0
3.191406 -1.620636 2.171929 0 255 0
3.191406 -1.595703 2.171929 0 255 0
3.191406 -1.570770 2.171929 0 255 0
3.193359 -1.546783 2.173258 0 255 0
3.193359 -1.521835 2.173258 0 255 0
3.193359 -1.496887 2.173258 0 255 0
3.193359 -1.471939 2.173258 0 255 0
3.195312 -1.447876 2.174588 0 255 0
3.195312 -1.422913 2.174588 0 255 0
3.195312 -1.397949 2.174588 0 255 0
3.197266 -1.373825 2.175917 0 255 0
3.199219 -1.349670 2.177246 0 255 0
3.199219 -1.324677 2.177246 0 255 0
3.201172 -1.300476 2.178575 0 255 0
3.203125 -1.276245 2.179905 0 255 0
3.205078 -1.251984 2.181234 0 255 0
3.207031 -1.227692 2.182563 0 255 0
3.208984 -1.203369 2.183892 0 255 0
4.089844 -1.501740 2.783366 0 255 0
4.078125 -1.465576 2.775391 0 255 0
4.070312 -1.430969 2.770074 0 255 0
4.062500 -1.396484 2.764757 0 255 0
4.054688 -1.362122 2.759440 0 255 0
4.046875 -1.327881 2.754123 0 255 0
4.039062 -1.293762 2.748806 0 255 0
4.031250 -1.259766 2.743490 0 255 0
4.023438 -1.225891 2.738173 0 255 0
4.015625 -1.192139 2.732856 0 255 0
4.007812 -1.158508 2.727539 0 255 0
4.000000 -1.125000 2.722222 0 255 0
3.994141 -1.092148 2.718235 0 255 0
3.986328 -1.058868 2.712918 0 255 0
3.980469 -1.026215 2.708930 0 255 0
3.974609 -0.993652 2.704942 0 255 0
3.968750 -0.961182 2.700955 0 255 0
3.962891 -0.928802 2.696967 0 255 0
3.957031 -0.896515 2.692980 0 255 0
3.951172 -0.864319 2.688992 0 255 0
3.945312 -0.832214 2.685004 0 255 0
3.939453 -0.800201 2.681017 0 255 0
3.935547 -0.768661 2.678358 0 255 0
3.929688 -0.736816 2.674371 0 255 0
3.925781 -0.705414 2.671712 0 255 0
3.919922 -0.673737 2.667725 0 255 0
3.916016 -0.642471 2.665066 0 255 0
3.912109 -0.611267 2.662408 0 255 0
3.908203 -0.580124 2.659749 0 255 0
3.904297 -0.549042 2.657091 0 255 0
3.900391 -0.518021 2.654433 0 255 0
3.898438 -0.487305 2.653103 0 255 0
3.894531 -0.456390 2.650445 0 255 0
3.892578 -0.425751 2.649116 0 255 0
3.888672 -0.394943 2.646457 0 255 0
3.886719 -0.364380 2.645128 0 255 0
3.884766 -0.333847 2.643799 0 255 0
3.882812 -0.303345 2.642470 0 255 0
3.880859 -0.272873 2.641140 0 255 0
3.878906 -0.242432 2.639811 0 255 0
3.876953 -0.212021 2.638482 0 255 0
3.876953 -0.181732 2.638482 0 255 0
3.875000 -0.151367 2.637153 0 255 0
3.875000 -0.121094 2.637153 0 255 0
3.875000 -0.090820 2.637153 0 255 0
3.873047 -0.060516 2.635824 0 255 0
3.873047 -0.030258 2.635824 0 255 0
3.873047 0.000000 2.635824 0 255 0
3.873047 0.030258 2.635824 0 255 0
3.875000 0.060547 2.637153 0 255 0
3.875000 0.090820 2.637153 0 255 0
3.875000 0.121094 2.637153 0 255 0
3.876953 0.151443 2.638482 0 255 0
3.876953 0.181732 2.638482 0 255 0
3.878906 0.212128 2.639811 0 255 0
3.880859 0.242554 2.641140 0 255 0
3.882812 0.273010 2.642470 0 255 0
3.884766 0.303497 2.643799 0 255 0
3.886719 0.334015 2.645128 0 255 0
3.888672 0.364563 2.646457 0 255 0
3.892578 0.395340 2.649116 0 255 0
3.894531 0.425964 2.650445 0 255 0
1.758789 0.206108 1.196954 0 255 0
1.747070 0.218384 1.188978 0 255 0
1.740234 0.231125 1.184326 0 255 0
1.735352 0.244034 1.181003 0 255 0
1.734375 0.257446 1.180339 0 255 0
1.734375 0.270996 1.180339 0 255 0
1.736328 0.284866 1.181668 0 255 0
1.741211 0.299271 1.184991 0 255 0
1.746094 0.313751 1.188314 0 255 0
1.752930 0.328674 1.192966 0 255 0
1.757812 0.343323 1.196289 0 255 0
1.765625 0.358643 1.201606 0 255 0
1.775391 0.374496 1.208252 0 255 0
1.800781 0.393921 1.225532 0 255 0
3.962891 0.897842 2.696967 0 255 0
3.968750 0.930176 2.700955 0 255 0
3.974609 0.962601 2.704942 0 255 0
3.980469 0.995117 2.708930 0 255 0
3.986328 1.027725 2.712918 0 255 0
3.994141 1.060944 2.718235 0 255 0
4.000000 1.093750 2.722222 0 255 0
4.007812 1.127197 2.727539 0 255 0
4.015625 1.160767 2.732856 0 255 0
4.023438 1.194458 2.738173 0 255 0
4.031250 1.228271 2.743490 0 255 0
4.039062 1.262207 2.748806 0 255 0
4.046875 1.296265 2.754123 0 255 0
4.054688 1.330444 2.759440 0 255 0
4.062500 1.364746 2.764757 0 255 0
4.070312 1.399170 2.770074 0 255 0
4.078125 1.433716 2.775391 0 255 0
4.089844 1.469788 2.783366 0 255 0
4.097656 1.504608 2.788683 0 255 0
4.105469 1.539551 2.794000 0 255 0
4.117188 1.576111 2.801975 0 255 0
4.125000 1.611328 2.807292 0 255 0
4.136719 1.648224 2.815267 0 255 0
4.144531 1.683716 2.820584 0 255 0
4.156250 1.720947 2.828559 0 255 0
4.167969 1.758362 2.836534 0 255 0
4.175781 1.794281 2.841851 0 255 0
4.187500 1.832031 2.849826 0 255 0
4.199219 1.869965 2.857802 0 255 0
4.210938 1.908081 2.865777 0 255 0
4.222656 1.946381 2.873752 0 255 0
4.230469 1.983032 2.879069 0 255 0
4.242188 2.021667 2.887044 0 255 0
4.253906 2.060486 2.895020 0 255 0
4.265625 2.099487 2.902995 0 255 0
4.277344 2.138672 2.910970 0 255 0
4.292969 2.180023 2.921604 0 255 0
2.316406 1.194397 1.576443 0 255 0
2.289062 1.198181 1.557834 0 255 0
2.261719 1.201538 1.539225 0 255 0
2.236328 1.205521 1.521946 0 255 0
2.210938 1.209106 1.504666 0 255 0
2.185547 1.212296 1.487386 0 255 0
2.162109 1.216187 1.471436 0 255 0
2.138672 1.219711 1.455485 0 255 0
2.117188 1.223999 1.440864 0 255 0
2.095703 1.227951 1.426242 0 255 0
2.074219 1.231567 1.411621 0 255 0
2.054688 1.236023 1.398329 0 255 0
2.035156 1.240173 1.385037 0 255 0
2.015625 1.244019 1.371745 0 255 0
1.997070 1.248169 1.359117 0 255 0
1.978516 1.252029 1.346490 0 255 0
1.960938 1.256226 1.334527 0 255 0
1.943359 1.260147 1.322564 0 255 0
1.926758 1.264435 1.311266 0 255 0
1.910156 1.268463 1.299967 0 255 0
1.894531 1.272888 1.289334 0 255 0
1.878906 1.277069 1.278700 0 255 0
1.864258 1.281677 1.268731 0 255 0
1.849609 1.286057 1.258762 0 255 0
1.834961 1.290207 1.248793 0 255 0
1.821289 1.294823 1.239488 0 255 0
1.807617 1.299225 1.230184 0 255 0
1.793945 1.303413 1.220879 0 255 0
1.781250 1.308105 1.212240 0 255 0
1.768555 1.312599 1.203600 0 255 0
1.756836 1.317627 1.195624 0 255 0
1.744141 1.321732 1.186985 0 255 0
1.732422 1.326385 1.179009 0 255 0
1.720703 1.330856 1.171034 0 255 0
1.709961 1.335907 1.163723 0 255 0
1.699219 1.340790 1.156413 0 255 0
1.688477 1.345505 1.149102 0 255 0
1.677734 1.350052 1.141791 0 255 0
1.667969 1.355225 1.135145 0 255 0
1.657227 1.359444 1.127835 0 255 0
1.647461 1.364304 1.121189 0 255 0
1.638672 1.369827 1.115207 0 255 0
1.628906 1.374390 1.108561 0 255 0
1.620117 1.379631 1.102580 0 255 0
1.610352 1.383896 1.095934 0 255 0
1.602539 1.389702 1.090617 0 255 0
1.593750 1.394531 1.084635 0 255 0
1.584961 1.399223 1.078654 0 255 0
1.577148 1.404648 1.073337 0 255 0
1.569336 1.409950 1.068020 0 255 0
1.560547 1.414246 1.062039 0 255 0
1.553711 1.420189 1.057387 0 255 0
1.545898 1.425125 1.052070 0 255 0
1.538086 1.429939 1.046753 0 255 0
1.531250 1.435547 1.042101 0 255 0
1.524414 1.441048 1.037448 0 255 0
1.516602 1.445511 1.032132 0 255 0
1.509766 1.450790 1.027479 0 255 0
1.503906 1.456909 1.023492 0 255 0
1.497070 1.461983 1.018840 0 255 0
1.498047 1.474640 1.019504 0 255 0
1.503906 1.492157 1.023492 0 255 0
5.187500 -5.187500 3.602431 0 255 0
5.171875 -5.131470 3.591580 0 255 0
5.152344 -5.071838 3.578016 0 255 0
5.132812 -5.012512 3.564453 0 255 0
5.113281 -4.953491 3.550890 0 255 0
5.097656 -4.898529 3.540039 0 255 0
5.078125 -4.840088 3.526476 0 255 0
5.058594 -4.781952 3.512912 0 255 0
5.042969 -4.727783 3.502062 0 255 0
5.023438 -4.670227 3.488498 0 255 0
5.003906 -4.612976 3.474935 0 255 0
4.988281 -4.559601 3.464084 0 255 0
4.968750 -4.502930 3.450521 0 255 0
4.953125 -4.450073 3.439670 0 255 0
4.933594 -4.393982 3.426107 0 255 0
4.917969 -4.341644 3.415256 0 255 0
4.898438 -4.286133 3.401693 0 255 0
4.882812 -4.234314 3.390842 0 255 0
4.863281 -4.179382 3.377279 0 255 0
4.847656 -4.128082 3.366428 0 255 0
4.828125 -4.073730 3.352865 0 255 0
4.812500 -4.022949 3.342014 0 255 0
4.796875 -3.972412 3.331163 0 255 0
4.781250 -3.922119 3.320312 0 255 0
4.761719 -3.868896 3.306749 0 255 0
4.746094 -3.819122 3.295898 0 255 0
3.265625 -2.602295 2.267795 0 255 0
3.261719 -2.573700 2.265082 0 255 0
3.259766 -2.546692 2.263726 0 255 0
3.255859 -2.518204 2.261013 0 255 0
3.251953 -2.489777 2.258301 0 255 0
3.250000 -2.462891 2.256944 0 255 0
3.248047 -2.436035 2.255588 0 255 0
3.244141 -2.407761 2.252875 0 255 0
3.242188 -2.380981 2.251519 0 255 0
3.238281 -2.352814 2.248806 0 255 0
3.236328 -2.326111 2.247450 0 255 0
3.234375 -2.299438 2.246094 0 255 0
3.232422 -2.272797 2.244737 0 255 0
3.230469 -2.246185 2.243381 0 255 0
3.226562 -2.218262 2.240668 0 255 0
3.224609 -2.191727 2.239312 0 255 0
3.222656 -2.165222 2.237956 0 255 0
3.220703 -2.138748 2.236599 0 255 0
3.218750 -2.112305 2.235243 0 255 0
3.216797 -2.085892 2.233887 0 255 0
3.214844 -2.059509 2.232530 0 255 0
3.212891 -2.033157 2.231174 0 255 0
3.212891 -2.008057 2.231174 0 255 0
3.210938 -1.981750 2.229818 0 255 0
3.208984 -1.955475 2.228461 0 255 0
3.207031 -1.929230 2.227105 0 255 0
3.207031 -1.904175 2.227105 0 255 0
3.205078 -1.877975 2.225749 0 255 0
3.205078 -1.852936 2.225749 0 255 0
3.203125 -1.826782 2.224392 0 255 0
3.203125 -1.801758 2.224392 0 255 0
3.201172 -1.775650 2.223036 0 255 0
3.201172 -1.750641 2.223036 0 255 0
3.201172 -1.725632 2.223036 0 255 0
3.199219 -1.699585 2.221680 0 255 0
3.199219 -1.674591 2.221680 0 255 0
3.199219 -1.649597 2.221680 0 255 0
3.199219 -1.624603 2.221680 0 255 0
3.199219 -1.599609 2.221680 0 255 0
3.199219 -1.574615 2.221680 0 255 0
3.199219 -1.549622 2.221680 0 255 0
3.199219 -1.524628 2.221680 0 255 0
3.201172 -1.500549 2.223036 0 255 0
3.201172 -1.475540 2.223036 0 255 0
3.201172 -1.450531 2.223036 0 255 0
3.203125 -1.426392 2.224392 0 255 0
3.203125 -1.401367 2.224392 0 255 0
3.205078 -1.377182 2.225749 0 255 0
3.205078 -1.352142 2.225749 0 255 0
3.207031 -1.327911 2.227105 0 255 0
3.208984 -1.303650 2.228461 0 255 0
3.210938 -1.279358 2.229818 0 255 0
3.212891 -1.255035 2.231174 0 255 0
3.214844 -1.230682 2.232530 0 255 0
3.216797 -1.206299 2.233887 0 255 0
4.015625 -1.474487 2.788628 0 255 0
4.007812 -1.440308 2.783203 0 255 0
4.000000 -1.406250 2.777778 0 255 0
3.992188 -1.372314 2.772352 0 255 0
3.984375 -1.338501 2.766927 0 255 0
3.976562 -1.304810 2.761502 0 255 0
3.968750 -1.271240 2.756076 0 255 0
3.960938 -1.237793 2.750651 0 255 0
3.953125 -1.204468 2.745226 0 255 0
3.945312 -1.171265 2.739800 0 255 0
3.937500 -1.138184 2.734375 0 255 0
3.931641 -1.105774 2.730306 0 255 0
3.923828 -1.072922 2.724881 0 255 0
3.917969 -1.040710 2.720812 0 255 0
3.912109 -1.008591 2.716743 0 255 0
3.906250 -0.976562 2.712674 0 255 0
3.898438 -0.944153 2.707248 0 255 0
3.892578 -0.912323 2.703179 0 255 0
3.886719 -0.880585 2.699110 0 255 0
3.882812 -0.849365 2.696398 0 255 0
3.876953 -0.817795 2.692329 0 255 0
3.871094 -0.786316 2.688260 0 255 0
3.867188 -0.755310 2.685547 0 255 0
3.861328 -0.723999 2.681478 0 255 0
3.857422 -0.693130 2.678765 0 255 0
3.853516 -0.662323 2.676053 0 255 0
3.849609 -0.631577 2.673340 0 255 0
3.845703 -0.600891 2.670627 0 255 0
3.841797 -0.570267 2.667914 0 255 0
3.837891 -0.539703 2.665202 0 255 0
3.833984 -0.509201 2.662489 0 255 0
3.830078 -0.478760 2.659776 0 255 0
3.828125 -0.448608 2.658420 0 255 0
3.824219 -0.418274 2.655707 0 255 0
3.822266 -0.388199 2.654351 0 255 0
3.820312 -0.358154 2.652995 0 255 0
3.818359 -0.328140 2.651638 0 255 0
3.816406 -0.298157 2.650282 0 255 0
3.814453 -0.268204 2.648926 0 255 0
3.812500 -0.238281 2.647569 0 255 0
3.810547 -0.208389 2.646213 0 255 0
3.810547 -0.178619 2.646213 0 255 0
3.808594 -0.148773 2.644857 0 255 0
3.808594 -0.119019 2.644857 0 255 0
3.806641 -0.089218 2.643500 0 255 0
3.806641 -0.059479 2.643500 0 255 0
3.806641 -0.029739 2.643500 0 255 0
3.806641 0.000000 2.643500 0 255 0
3.806641 0.029739 2.643500 0 255 0
3.806641 0.059479 2.643500 0 255 0
3.808594 0.089264 2.644857 0 255 0
3.808594 0.119019 2.644857 0 255 0
3.810547 0.148849 2.646213 0 255 0
3.810547 0.178619 2.646213 0 255 0
3.812500 0.208496 2.647569 0 255 0
3.814453 0.238403 2.648926 0 255 0
3.816406 0.268341 2.650282 0 255 0
3.818359 0.298309 2.651638 0 255 0
3.820312 0.328308 2.652995 0 255 0
3.822266 0.358337 2.654351 0 255 0
3.824219 0.388397 2.655707 0 255 0
1.770508 0.193649 1.229519 0 255 0
1.752930 0.205421 1.217312 0 255 0
1.743164 0.217896 1.210531 0 255 0
1.737305 0.230736 1.206462 0 255 0
1.734375 0.243896 1.204427 0 255 0
1.733398 0.257301 1.203749 0 255 0
1.737305 0.271454 1.206462 0 255 0
1.740234 0.285507 1.208496 0 255 0
1.747070 0.300278 1.213243 0 255 0
1.755859 0.315506 1.219347 0 255 0
1.767578 0.331421 1.227485 0 255 0
1.782227 0.348091 1.237657 0 255 0
1.792969 0.364197 1.245117 0 255 0
1.788086 0.377174 1.241726 0 255 0
3.886719 0.850220 2.699110 0 255 0
3.892578 0.881912 2.703179 0 255 0
3.898438 0.913696 2.707248 0 255 0
3.906250 0.946045 2.712674 0 255 0
3.912109 0.978027 2.716743 0 255 0
3.917969 1.010101 2.720812 0 255 0
3.923828 1.042267 2.724881 0 255 0
3.931641 1.075058 2.730306 0 255 0
3.937500 1.107422 2.734375 0 255 0
3.945312 1.140442 2.739800 0 255 0
3.953125 1.173584 2.745226 0 255 0
3.960938 1.206848 2.750651 0 255 0
3.968750 1.240234 2.756076 0 255 0
3.976562 1.273743 2.761502 0 255 0
3.984375 1.307373 2.766927 0 255 0
3.992188 1.341125 2.772352 0 255 0
4.000000 1.375000 2.777778 0 255 0
4.007812 1.408997 2.783203 0 255 0
4.015625 1.443115 2.788628 0 255 0
4.027344 1.478790 2.796766 0 255 0
4.035156 1.513184 2.802192 0 255 0
4.042969 1.547699 2.807617 0 255 0
4.054688 1.583862 2.815755 0 255 0
4.062500 1.618652 2.821181 0 255 0
4.074219 1.655151 2.829319 0 255 0
4.082031 1.690216 2.834744 0 255 0
4.093750 1.727051 2.842882 0 255 0
4.105469 1.764069 2.851020 0 255 0
4.113281 1.799561 2.856445 0 255 0
4.125000 1.836914 2.864583 0 255 0
4.136719 1.874451 2.872721 0 255 0
4.148438 1.912170 2.880859 0 255 0
4.156250 1.948242 2.886285 0 255 0
4.167969 1.986298 2.894423 0 255 0
4.179688 2.024536 2.902561 0 255 0
4.191406 2.062958 2.910699 0 255 0
4.203125 2.101562 2.918837 0 255 0
4.214844 2.140350 2.926975 0 255 0
2.322266 1.197418 1.612684 0 255 0
2.292969 1.200226 1.592339 0 255 0
2.265625 1.203613 1.573351 0 255 0
2.240234 1.207626 1.555718 0 255 0
2.214844 1.211243 1.538086 0 255 0
2.191406 1.215546 1.521810 0 255 0
2.166016 1.218384 1.504178 0 255 0
2.144531 1.223053 1.489258 0 255 0
2.121094 1.226257 1.472982 0 255 0
2.099609 1.230240 1.458062 0 255 0
2.078125 1.233887 1.443142 0 255 0
2.058594 1.238373 1.429579 0 255 0
2.039062 1.242554 1.416016 0 255 0
2.019531 1.246429 1.402452 0 255 0
2.000000 1.250000 1.388889 0 255 0
1.982422 1.254501 1.376682 0 255 0
1.964844 1.258728 1.364475 0 255 0
1.947266 1.262680 1.352268 0 255 0
1.930664 1.266998 1.340739 0 255 0
1.914062 1.271057 1.329210 0 255 0
1.898438 1.275513 1.318359 0 255 0
1.882812 1.279724 1.307509 0 255 0
1.867188 1.283691 1.296658 0 255 0
1.852539 1.288094 1.286485 0 255 0
1.838867 1.292953 1.276991 0 255 0
1.824219 1.296906 1.266819 0 255 0
1.810547 1.301331 1.257324 0 255 0
1.797852 1.306252 1.248508 0 255 0
1.784180 1.310257 1.239014 0 255 0
1.771484 1.314774 1.230197 0 255 0
1.759766 1.319824 1.222059 0 255 0
1.747070 1.323952 1.213243 0 255 0
1.735352 1.328629 1.205105 0 255 0
1.723633 1.333122 1.196967 0 255 0
1.712891 1.338196 1.189507 0 255 0
1.702148 1.343102 1.182048 0 255 0
1.691406 1.347839 1.174588 0 255 0
1.680664 1.352409 1.167128 0 255 0
1.669922 1.356812 1.159668 0 255 0
1.660156 1.361847 1.152886 0 255 0
1.650391 1.366730 1.146105 0 255 0
1.640625 1.371460 1.139323 0 255 0
1.631836 1.376862 1.133219 0 255 0
1.622070 1.381294 1.126438 0 255 0
1.613281 1.386414 1.120334 0 255 0
1.604492 1.391396 1.114231 0 255 0
1.595703 1.396240 1.108127 0 255 0
1.587891 1.401810 1.102702 0 255 0
1.579102 1.406387 1.096598 0 255 0
1.571289 1.411705 1.091173 0 255 0
1.563477 1.416901 1.085748 0 255 0
1.555664 1.421974 1.080322 0 255 0
1.547852 1.426926 1.074897 0 255 0
1.541016 1.432663 1.070150 0 255 0
1.533203 1.437378 1.064724 0 255 0
1.526367 1.442894 1.059977 0 255 0
1.519531 1.448303 1.055230 0 255 0
1.512695 1.453606 1.050483 0 255 0
1.505859 1.458801 1.045736 0 255 0
1.499023 1.463890 1.040988 0 255 0
1.492188 1.468872 1.036241 0 255 0
1.486328 1.474716 1.032172 0 255 0
5.097656 -5.097656 3.610840 0 255 0
5.078125 -5.038452 3.597005 0 255 0
5.058594 -4.979553 3.583171 0 255 0
5.039062 -4.920959 3.569336 0 255 0
5.023438 -4.866455 3.558268 0 255 0
5.003906 -4.808441 3.544434 0 255 0
4.988281 -4.754456 3.533366 0 255 0
4.968750 -4.697021 3.519531 0 255 0
4.949219 -4.639893 3.505697 0 255 0
4.933594 -4.586700 3.494629 0 255 0
4.914062 -4.530151 3.480794 0 255 0
4.898438 -4.477478 3.469727 0 255 0
4.878906 -4.421509 3.455892 0 255 0
4.863281 -4.369354 3.444824 0 255 0
4.847656 -4.317444 3.433757 0 255 0
4.828125 -4.262329 3.419922 0 255 0
4.812500 -4.210938 3.408854 0 255 0
4.792969 -4.156403 3.395020 0 255 0
4.777344 -4.105530 3.383952 0 255 0
4.761719 -4.054901 3.372884 0 255 0
4.746094 -4.004517 3.361816 0 255 0
4.726562 -3.951111 3.347982 0 255 0
4.710938 -3.901245 3.336914 0 255 0
4.695312 -3.851624 3.325846 0 255 0
4.679688 -3.802246 3.314779 0 255 0
4.660156 -3.749969 3.300944 0 255 0
3.271484 -2.606964 2.317301 0 255 0
3.267578 -2.578323 2.314535 0 255 0
3.263672 -2.549744 2.311768 0 255 0
3.261719 -2.522736 2.310384 0 255 0
3.257812 -2.494263 2.307617 0 255 0
3.255859 -2.467331 2.306234 0 255 0
3.253906 -2.440430 2.304850 0 255 0
3.250000 -2.412109 2.302083 0 255 0
3.248047 -2.385284 2.300700 0 255 0
3.246094 -2.358490 2.299316 0 255 0
3.242188 -2.330322 2.296549 0 255 0
3.240234 -2.303604 2.295166 0 255 0
3.238281 -2.276917 2.293783 0 255 0
3.236328 -2.250259 2.292399 0 255 0
3.234375 -2.223633 2.291016 0 255 0
3.230469 -2.195709 2.288249 0 255 0
3.228516 -2.169159 2.286865 0 255 0
3.226562 -2.142639 2.285482 0 255 0
3.224609 -2.116150 2.284098 0 255 0
3.222656 -2.089691 2.282715 0 255 0
3.222656 -2.064514 2.282715 0 255 0
3.220703 -2.038101 2.281331 0 255 0
3.218750 -2.011719 2.279948 0 255 0
3.216797 -1.985367 2.278564 0 255 0
3.214844 -1.959045 2.277181 0 255 0
3.214844 -1.933929 2.277181 0 255 0
3.212891 -1.907654 2.275798 0 255 0
3.212891 -1.882553 2.275798 0 255 0
3.210938 -1.856323 2.274414 0 255 0
3.210938 -1.831238 2.274414 0 255 0
3.208984 -1.805054 2.273031 0 255 0
3.208984 -1.779984 2.273031 0 255 0
3.207031 -1.753845 2.271647 0 255 0
3.207031 -1.728790 2.271647 0 255 0
3.207031 -1.703735 2.271647 0 255 0
3.207031 -1.678680 2.271647 0 255 0
3.207031 -1.653625 2.271647 0 255 0
3.207031 -1.628571 2.271647 0 255 0
3.207031 -1.603516 2.271647 0 255 0
3.207031 -1.578461 2.271647 0 255 0
3.207031 -1.553406 2.271647 0 255 0
3.207031 -1.528351 2.271647 0 255 0
3.207031 -1.503296 2.271647 0 255 0
3.177734 -1.464737 2.250895 0 255 0
3.169922 -1.436371 2.245361 0 255 0
3.181641 -1.416824 2.253662 0 255 0
3.210938 -1.404785 2.274414 0 255 0
3.212891 -1.380539 2.275798 0 255 0
3.212891 -1.355438 2.275798 0 255 0
3.214844 -1.331146 2.277181 0 255 0
3.216797 -1.306824 2.278564 0 255 0
3.218750 -1.282471 2.279948 0 255 0
3.218750 -1.257324 2.279948 0 255 0
3.220703 -1.232925 2.281331 0 255 0
3.224609 -1.209229 2.284098 0 255 0
3.949219 -1.450104 2.797363 0 255 0
3.941406 -1.416443 2.791829 0 255 0
3.933594 -1.382904 2.786296 0 255 0
3.923828 -1.348816 2.779378 0 255 0
3.916016 -1.315536 2.773844 0 255 0
3.908203 -1.282379 2.768311 0 255 0
3.900391 -1.249344 2.762777 0 255 0
3.892578 -1.216431 2.757243 0 255 0
3.886719 -1.184235 2.753092 0 255 0
3.878906 -1.151550 2.747559 0 255 0
3.871094 -1.118988 2.742025 0 255 0
3.865234 -1.087097 2.737874 0 255 0
3.857422 -1.054764 2.732340 0 255 0
3.851562 -1.023071 2.728190 0 255 0
3.845703 -0.991470 2.724040 0 255 0
3.839844 -0.959961 2.719889 0 255 0
3.833984 -0.928543 2.715739 0 255 0
3.828125 -0.897217 2.711589 0 255 0
3.822266 -0.865982 2.707438 0 255 0
3.816406 -0.834839 2.703288 0 255 0
3.810547 -0.803787 2.699137 0 255 0
3.806641 -0.773224 2.696370 0 255 0
3.800781 -0.742340 2.692220 0 255 0
3.796875 -0.711914 2.689453 0 255 0
3.792969 -0.681549 2.686686 0 255 0
3.787109 -0.650909 2.682536 0 255 0
3.783203 -0.620682 2.679769 0 255 0
3.779297 -0.590515 2.677002 0 255 0
3.777344 -0.560699 2.675618 0 255 0
3.773438 -0.530640 2.672852 0 255 0
3.769531 -0.500641 2.670085 0 255 0
3.765625 -0.470703 2.667318 0 255 0
3.763672 -0.441055 2.665934 0 255 0
3.761719 -0.411438 2.664551 0 255 0
3.757812 -0.381653 2.661784 0 255 0
3.755859 -0.352112 2.660400 0 255 0
3.753906 -0.322601 2.659017 0 255 0
3.751953 -0.293121 2.657633 0 255 0
3.750000 -0.263672 2.656250 0 255 0
3.748047 -0.234253 2.654867 0 255 0
3.746094 -0.204865 2.653483 0 255 0
3.746094 -0.175598 2.653483 0 255 0
3.744141 -0.146255 2.652100 0 255 0
3.744141 -0.117004 2.652100 0 255 0
3.744141 -0.087753 2.652100 0 255 0
3.742188 -0.058472 2.650716 0 255 0
3.742188 -0.029236 2.650716 0 255 0
3.742188 0.000000 2.650716 0 255 0
3.742188 0.029236 2.650716 0 255 0
3.744141 0.058502 2.652100 0 255 0
3.744141 0.087753 2.652100 0 255 0
3.744141 0.117004 2.652100 0 255 0
3.746094 0.146332 2.653483 0 255 0
3.746094 0.175598 2.653483 0 255 0
3.748047 0.204971 2.654867 0 255 0
3.750000 0.234375 2.656250 0 255 0
3.751953 0.263809 2.657633 0 255 0
3.753906 0.293274 2.659017 0 255 0
3.755859 0.322769 2.660400 0 255 0
3.757812 0.352295 2.661784 0 255 0
1.780273 0.180809 1.261027 0 255 0
1.759766 0.192474 1.246501 0 255 0
1.746094 0.204620 1.236816 0 255 0
1.740234 0.217529 1.232666 0 255 0
1.736328 0.230606 1.229899 0 255 0
1.734375 0.243896 1.228516 0 255 0
1.734375 0.257446 1.228516 0 255 0
1.739258 0.271759 1.231974 0 255 0
1.744141 0.286148 1.235433 0 255 0
1.751953 0.301117 1.240967 0 255 0
1.759766 0.316208 1.246501 0 255 0
1.774414 0.332703 1.256877 0 255 0
1.793945 0.350380 1.270711 0 255 0
3.810547 0.774017 2.699137 0 255 0
3.816406 0.805023 2.703288 0 255 0
3.822266 0.836121 2.707438 0 255 0
3.828125 0.867310 2.711589 0 255 0
3.833984 0.898590 2.715739 0 255 0
3.839844 0.929962 2.719889 0 255 0
3.845703 0.961426 2.724040 0 255 0
3.851562 0.992981 2.728190 0 255 0
3.857422 1.024628 2.732340 0 255 0
3.865234 1.056900 2.737874 0 255 0
3.871094 1.088745 2.742025 0 255 0
3.878906 1.121246 2.747559 0 255 0
3.886719 1.153870 2.753092 0 255 0
3.892578 1.186020 2.757243 0 255 0
3.900391 1.218872 2.762777 0 255 0
3.908203 1.251846 2.768311 0 255 0
3.916016 1.284943 2.773844 0 255 0
3.923828 1.318161 2.779378 0 255 0
3.933594 1.352173 2.786296 0 255 0
3.941406 1.385651 2.791829 0 255 0
3.949219 1.419250 2.797363 0 255 0
3.958984 1.453690 2.804281 0 255 0
3.966797 1.487549 2.809814 0 255 0
3.976562 1.522278 2.816732 0 255 0
3.986328 1.557159 2.823649 0 255 0
3.996094 1.592194 2.830566 0 255 0
4.003906 1.626587 2.836100 0 255 0
4.011719 1.661102 2.841634 0 255 0
4.023438 1.697388 2.849935 0 255 0
4.035156 1.733856 2.858236 0 255 0
4.042969 1.768799 2.863770 0 255 0
4.054688 1.805603 2.872070 0 255 0
4.066406 1.842590 2.880371 0 255 0
4.074219 1.877960 2.885905 0 255 0
4.085938 1.915283 2.894206 0 255 0
4.097656 1.952789 2.902507 0 255 0
4.109375 1.990479 2.910807 0 255 0
