10784.000 10816.000 10856.000 10888.000 10928.000 10960.000 11000.000 11040.000 11072.000 11112.000 11152.000 11184.000 11224.000 11264.000 11296.000 11336.000 11368.000 11408.000 11448.000 11488.000 11520.000 11560.000 11600.000 11640.000 11672.000 11712.000 11744.000 11776.000 11816.000 11848.000 11888.000 11928.000 11960.000 12000.000 12032.000 12072.000 12112.000 12152.000 12184.000 12224.000 12264.000 12304.000 12344.000 12376.000 12408.000 12448.000 12480.000 12512.000 12552.000 12584.000 12616.000 12656.000 12688.000 12728.000 12760.000 12800.000 12832.000 12872.000 12912.000 12944.000 12976.000 13008.000 13040.000 13072.000 13104.000 13136.000 13168.000 13200.000 13232.000 13264.000 13296.000 13328.000 13360.000 13392.000 13424.000 13456.000 13488.000 13512.000 13536.000 13568.000 13592.000 13616.000 13648.000 13672.000 13696.000 13728.000 13752.000 13784.000 13808.000 13832.000 13856.000 13872.000 13888.000 13912.000 13928.000 13952.000 13968.000 13992.000 14008.000 14024.000 14048.000 14064.000 14088.000 14096.000 14112.000 14120.000 14136.000 14144.000 14160.000 14168.000 14184.000 14192.000 14208.000 14216.000 14232.000 14240.000 14248.000 14248.000 14256.000 14256.000 14264.000 14264.000 14272.000 14272.000 14280.000 14288.000 14288.000 14296.000 14296.000 14288.000 14288.000 14280.000 14272.000 14272.000 14264.000 14264.000 14256.000 14256.000 14248.000 14248.000 14240.000 14232.000 14216.000 14208.000 14192.000 14184.000 14168.000 14160.000 14144.000 14136.000 14120.000 14112.000 14096.000 14088.000 14064.000 14048.000 14024.000 14008.000 13992.000 13968.000 13952.000 13928.000 13912.000 13888.000 13872.000 13856.000 13832.000 13808.000 13784.000 13752.000 13728.000 13696.000 13672.000 13648.000 13616.000 13592.000 13568.000 13536.000 13512.000 13488.000 13456.000 13432.000 13392.000 13360.000 13328.000 13296.000 13264.000 13232.000 13200.000 13168.000 13136.000 13104.000 13072.000 13040.000 13008.000 12976.000 12944.000 12912.000 12872.000 12832.000 12800.000 12760.000 12728.000 12688.000 12656.000 12616.000 12584.000 12552.000 12512.000 12480.000 12448.000 12408.000 12376.000 12344.000 12304.000 12264.000 12224.000 12184.000 12152.000 12112.000 12072.000 12032.000 12000.000 11960.000 11928.000 11888.000 11856.000 11816.000 11784.000 11744.000 11712.000 11672.000 11640.000 11600.000 11560.000 11528.000 11488.000 11448.000 11408.000 11376.000 11336.000 11296.000 11264.000 11224.000 11184.000 11152.000 11112.000 11072.000 11040.000 11000.000 2.158 2.154 10888.000 10856.000 10824.000 10784.000
10800.000 10840.000 10872.000 10912.000 10944.000 10984.000 11016.000 11056.000 11096.000 11128.000 11168.000 11208.000 11248.000 11280.000 11320.000 11360.000 11400.000 11440.000 11472.000 11512.000 11552.000 11592.000 11632.000 11664.000 11704.000 11736.000 11776.000 11808.000 11848.000 11880.000 11920.000 11952.000 11992.000 12024.000 12064.000 12104.000 12144.000 12176.000 12216.000 12256.000 12296.000 12336.000 12376.000 12408.000 12440.000 12472.000 12512.000 12544.000 12584.000 12616.000 12648.000 12688.000 12720.000 12760.000 12792.000 12832.000 12872.000 12904.000 12944.000 12976.000 13008.000 13040.000 13072.000 13104.000 13136.000 13168.000 13200.000 13232.000 13264.000 13296.000 13336.000 13368.000 13400.000 13432.000 13464.000 13496.000 13520.000 13552.000 13576.000 13600.000 13632.000 13656.000 13680.000 13712.000 13736.000 13768.000 13792.000 13824.000 13848.000 13872.000 13896.000 13912.000 13936.000 13952.000 13976.000 14000.000 14016.000 14040.000 14056.000 14080.000 14096.000 14112.000 14136.000 14152.000 14160.000 14176.000 14184.000 14200.000 14208.000 14224.000 14232.000 14248.000 14256.000 14272.000 14280.000 14296.000 14296.000 14304.000 14304.000 14312.000 14312.000 14320.000 14320.000 14328.000 14328.000 14336.000 14336.000 14344.000 14344.000 14336.000 14336.000 14328.000 14328.000 14320.000 14320.000 14312.000 14312.000 14304.000 14304.000 14296.000 14296.000 14280.000 14272.000 14256.000 14248.000 14232.000 14224.000 14208.000 14200.000 14184.000 14176.000 14160.000 14152.000 14136.000 14112.000 14096.000 14080.000 14056.000 14040.000 14016.000 14000.000 13976.000 13952.000 13936.000 13912.000 13896.000 13872.000 13848.000 13824.000 13792.000 13768.000 13736.000 13712.000 13680.000 13656.000 13632.000 13600.000 13576.000 13552.000 13520.000 13496.000 13464.000 13432.000 13400.000 13368.000 13336.000 13296.000 13264.000 13232.000 13200.000 13168.000 13136.000 13104.000 13072.000 13040.000 13008.000 12976.000 12944.000 12904.000 12872.000 12832.000 12792.000 12760.000 12720.000 12688.000 12648.000 12616.000 12584.000 12544.000 12512.000 12472.000 12440.000 12408.000 12376.000 12336.000 12296.000 12256.000 12216.000 12176.000 12144.000 12104.000 12064.000 12032.000 11992.000 11952.000 11920.000 11880.000 11848.000 11808.000 11776.000 11736.000 11704.000 11664.000 11632.000 11592.000 11552.000 11512.000 11472.000 11440.000 11400.000 11360.000 11320.000 11280.000 11248.000 11208.000 11168.000 11128.000 11096.000 11056.000 11016.000 2.158 2.154 10912.000 10872.000 10840.000 10800.000
10824.000 10856.000 10896.000 10928.000 10968.000 11000.000 11040.000 11072.000 11112.000 11152.000 11192.000 11224.000 11264.000 11304.000 11344.000 11384.000 11424.000 11456.000 11496.000 11536.000 11576.000 11616.000 11656.000 11696.000 11728.000 11768.000 11800.000 11840.000 11872.000 11912.000 11944.000 11984.000 12024.000 12056.000 12096.000 12136.000 12168.000 12208.000 12248.000 12288.000 12328.000 12368.000 12400.000 12440.000 12472.000 12504.000 12544.000 12576.000 12616.000 12648.000 12680.000 12720.000 12752.000 12792.000 12832.000 12864.000 12904.000 12936.000 12976.000 13016.000 13048.000 13080.000 13112.000 13144.000 13176.000 13208.000 13240.000 13272.000 13304.000 13336.000 13368.000 13400.000 13432.000 13472.000 13504.000 13536.000 13560.000 13584.000 13616.000 13640.000 13664.000 13696.000 13720.000 13752.000 13776.000 13808.000 13832.000 13856.000 13888.000 13912.000 13936.000 13952.000 13976.000 13992.000 14016.000 14040.000 14056.000 14080.000 14096.000 14120.000 14144.000 14160.000 14184.000 14200.000 14208.000 14224.000 14232.000 14248.000 14256.000 14272.000 14280.000 14296.000 14304.000 14320.000 14336.000 14344.000 14344.000 14352.000 14360.000 14360.000 14368.000 14368.000 14376.000 14376.000 14384.000 14384.000 14392.000 14392.000 14392.000 14392.000 14384.000 14384.000 14376.000 14376.000 14368.000 14368.000 14360.000 14360.000 14352.000 14344.000 14344.000 14336.000 14320.000 14304.000 14296.000 14280.000 14272.000 14256.000 14248.000 14232.000 14224.000 14208.000 14200.000 14184.000 14160.000 14144.000 14120.000 14096.000 14080.000 14056.000 14040.000 14016.000 13992.000 13976.000 13952.000 13936.000 13912.000 13888.000 13856.000 13832.000 13808.000 13776.000 13752.000 13720.000 13696.000 13664.000 13640.000 13616.000 13584.000 13560.000 13536.000 13504.000 13472.000 13432.000 13400.000 13368.000 13336.000 13304.000 13272.000 13240.000 13208.000 13176.000 13144.000 13112.000 13080.000 13048.000 13016.000 12976.000 12936.000 12904.000 12864.000 12832.000 12792.000 12752.000 12720.000 12688.000 12648.000 12616.000 12576.000 12544.000 12504.000 12472.000 12440.000 12408.000 12368.000 12328.000 12288.000 12248.000 12208.000 12168.000 12136.000 12096.000 12056.000 12024.000 11984.000 11944.000 11912.000 11872.000 11840.000 11800.000 11768.000 11728.000 11696.000 11656.000 11616.000 11576.000 11536.000 11496.000 11456.000 11424.000 11384.000 11344.000 11304.000 11264.000 11224.000 11192.000 11152.000 11112.000 11080.000 11040.000 2.158 2.154 10928.000 10896.000 10856.000 10824.000
10840.000 10880.000 10912.000 10952.000 10984.000 11024.000 11056.000 11096.000 11136.000 11168.000 11208.000 11248.000 11288.000 11320.000 11360.000 11400.000 11440.000 11480.000 11520.000 11560.000 11600.000 11640.000 11680.000 11720.000 11760.000 11792.000 11832.000 11864.000 11904.000 11936.000 11976.000 12016.000 12048.000 12088.000 12128.000 12160.000 12200.000 12240.000 12280.000 12320.000 12360.000 12392.000 12432.000 12472.000 12504.000 12536.000 12576.000 12608.000 12648.000 12680.000 12720.000 12752.000 12792.000 12824.000 12864.000 12896.000 12936.000 12976.000 13008.000 13048.000 13080.000 13112.000 13144.000 13176.000 13208.000 13240.000 13272.000 13304.000 13336.000 13368.000 13408.000 13440.000 13472.000 13504.000 13536.000 13568.000 13600.000 13624.000 13648.000 13680.000 13704.000 13736.000 13760.000 13784.000 13816.000 13840.000 13872.000 13896.000 13928.000 13952.000 13976.000 13992.000 14016.000 14032.000 14056.000 14080.000 14096.000 14120.000 14136.000 14160.000 14184.000 14200.000 14224.000 14240.000 14248.000 14264.000 14280.000 14288.000 14304.000 14312.000 14328.000 14344.000 14352.000 14368.000 14384.000 14392.000 14400.000 14400.000 14408.000 14408.000 14416.000 14416.000 14424.000 14424.000 14432.000 14440.000 14440.000 14448.000 14448.000 14440.000 14440.000 14432.000 14424.000 14424.000 14416.000 14416.000 14408.000 14408.000 14400.000 14400.000 14392.000 14384.000 14368.000 14352.000 14344.000 14328.000 14312.000 14304.000 14288.000 14280.000 14264.000 14248.000 14240.000 14224.000 14200.000 14184.000 14160.000 14136.000 14120.000 14096.000 14080.000 14056.000 14032.000 14016.000 13992.000 13976.000 13952.000 13928.000 13896.000 13872.000 13840.000 13816.000 13784.000 13760.000 13736.000 13704.000 13680.000 13648.000 13624.000 13600.000 13568.000 13536.000 13504.000 13472.000 13440.000 13408.000 13376.000 13336.000 13304.000 13272.000 13240.000 13208.000 13176.000 13144.000 13112.000 13080.000 13048.000 13008.000 12976.000 12936.000 12896.000 12864.000 12824.000 12792.000 12752.000 12720.000 12680.000 12648.000 12608.000 12576.000 12536.000 12504.000 12472.000 12432.000 12400.000 12360.000 12320.000 12280.000 12240.000 12200.000 12160.000 12128.000 12088.000 12048.000 12016.000 11976.000 11936.000 11904.000 11864.000 11832.000 11792.000 11760.000 11720.000 11680.000 11640.000 11600.000 11560.000 11520.000 11480.000 11440.000 11400.000 11360.000 11320.000 11288.000 11248.000 11208.000 11168.000 11136.000 11096.000 11056.000 2.158 2.154 10952.000 10912.000 10880.000 10840.000
10864.000 10896.000 10928.000 10968.000 11008.000 11040.000 11080.000 11112.000 11152.000 11192.000 11232.000 11264.000 11304.000 11344.000 11384.000 11424.000 11464.000 11504.000 11544.000 11584.000 11624.000 11664.000 11704.000 11744.000 11784.000 11816.000 11856.000 11896.000 11928.000 11968.000 12008.000 12040.000 12080.000 12120.000 12152.000 12192.000 12232.000 12272.000 12312.000 12352.000 12384.000 12424.000 12464.000 12504.000 12536.000 12568.000 12608.000 12640.000 12680.000 12712.000 12752.000 12784.000 12824.000 12856.000 12896.000 12936.000 12968.000 13008.000 13048.000 13080.000 13120.000 13144.000 13176.000 13216.000 13248.000 13280.000 13312.000 13344.000 13376.000 13408.000 13440.000 13472.000 13512.000 13544.000 13576.000 13608.000 13632.000 13664.000 13688.000 13720.000 13744.000 13768.000 13800.000 13824.000 13856.000 13880.000 13912.000 13936.000 13968.000 13992.000 14016.000 14032.000 14056.000 14072.000 14096.000 14120.000 14136.000 14160.000 14184.000 14200.000 14224.000 14248.000 14264.000 14280.000 14288.000 14304.000 14320.000 14328.000 14344.000 14360.000 14368.000 14384.000 14400.000 14408.000 14424.000 14432.000 14440.000 14440.000 14448.000 14456.000 14456.000 14464.000 14464.000 14472.000 14472.000 14480.000 14480.000 14488.000 14488.000 14480.000 14480.000 14472.000 14472.000 14464.000 14464.000 14456.000 14456.000 14448.000 14440.000 14440.000 14432.000 14424.000 14408.000 14400.000 14384.000 14368.000 14360.000 14344.000 14328.000 14320.000 14304.000 14296.000 14280.000 14264.000 14248.000 14224.000 14200.000 14184.000 14160.000 14136.000 14120.000 14096.000 14072.000 14056.000 14032.000 14016.000 13992.000 13968.000 13936.000 13912.000 13880.000 13856.000 13824.000 13800.000 13768.000 13744.000 13720.000 13688.000 13664.000 13632.000 13608.000 13576.000 13544.000 13512.000 13472.000 13440.000 13408.000 13376.000 13344.000 13312.000 13280.000 13248.000 13216.000 13184.000 13152.000 13120.000 13080.000 13048.000 13008.000 12968.000 12936.000 12896.000 12856.000 12824.000 12784.000 12752.000 12712.000 12680.000 12640.000 12608.000 12576.000 12536.000 12504.000 12464.000 12424.000 12384.000 12352.000 12312.000 12272.000 12232.000 12192.000 12152.000 12120.000 12080.000 12040.000 12008.000 11968.000 11928.000 11896.000 11856.000 11816.000 11784.000 11744.000 11704.000 11664.000 11624.000 11584.000 11544.000 11504.000 11464.000 11424.000 11384.000 11344.000 11304.000 11264.000 11232.000 11192.000 11152.000 11112.000 11080.000 2.158 2.154 10968.000 10936.000 10896.000 10864.000
10880.000 10912.000 10952.000 10984.000 11024.000 11064.000 11096.000 11136.000 11176.000 11208.000 11248.000 11288.000 11328.000 11368.000 11408.000 11440.000 11480.000 11520.000 11560.000 11608.000 11648.000 11688.000 11728.000 11768.000 11808.000 11840.000 11880.000 11920.000 11952.000 11992.000 12032.000 12072.000 12112.000 12144.000 12184.000 12224.000 12264.000 12304.000 12344.000 12376.000 12416.000 12456.000 12496.000 12536.000 12568.000 12608.000 12640.000 12672.000 12712.000 12744.000 12784.000 12816.000 12856.000 12896.000 12928.000 12968.000 13008.000 13040.000 13080.000 13120.000 13152.000 13184.000 13216.000 13248.000 13280.000 13312.000 13344.000 13376.000 13408.000 13448.000 13480.000 13512.000 13544.000 13584.000 13616.000 13648.000 13672.000 13696.000 13728.000 13752.000 13784.000 13808.000 13840.000 13864.000 13896.000 13920.000 13952.000 13976.000 14008.000 14032.000 14056.000 14072.000 14096.000 14120.000 14136.000 14160.000 14176.000 14200.000 14224.000 14240.000 14264.000 14288.000 14304.000 14320.000 14336.000 14344.000 14360.000 14376.000 14384.000 14400.000 14416.000 14424.000 14440.000 14456.000 14464.000 14480.000 14480.000 14488.000 14488.000 14496.000 14496.000 14504.000 14512.000 14512.000 14520.000 14520.000 14528.000 14528.000 14528.000 14528.000 14520.000 14520.000 14512.000 14512.000 14504.000 14496.000 14496.000 14488.000 14488.000 14480.000 14480.000 14464.000 14456.000 14440.000 14424.000 14416.000 14400.000 14384.000 14376.000 14360.000 14344.000 14336.000 14320.000 14304.000 14288.000 14264.000 14240.000 14224.000 14200.000 14176.000 14160.000 14136.000 14120.000 14096.000 14072.000 14056.000 14032.000 14008.000 13976.000 13952.000 13920.000 13896.000 13864.000 13840.000 13808.000 13784.000 13752.000 13728.000 13696.000 13672.000 13648.000 13616.000 13584.000 13544.000 13512.000 13480.000 13448.000 13416.000 13376.000 13344.000 13312.000 13280.000 13248.000 13216.000 13184.000 13152.000 13120.000 13080.000 13040.000 13008.000 12968.000 12928.000 12896.000 12856.000 12816.000 12784.000 12744.000 12712.000 12672.000 12640.000 12608.000 12568.000 12536.000 12496.000 12456.000 12416.000 12376.000 12344.000 12304.000 12264.000 12224.000 12184.000 12144.000 12112.000 12072.000 12032.000 11992.000 11960.000 11920.000 11880.000 11840.000 11808.000 11768.000 11728.000 11688.000 11648.000 11608.000 11560.000 11520.000 11480.000 11440.000 11408.000 11368.000 11328.000 11288.000 11248.000 11208.000 11176.000 11136.000 11096.000 2.158 2.154 10984.000 10952.000 10912.000 10880.000
10896.000 10936.000 10968.000 11008.000 11040.000 11080.000 11120.000 11152.000 11192.000 11232.000 11272.000 11312.000 11344.000 11384.000 11424.000 11464.000 11504.000 11544.000 11584.000 11624.000 11664.000 11712.000 11752.000 11792.000 11824.000 11864.000 11904.000 11944.000 11976.000 12016.000 12056.000 12096.000 12136.000 12176.000 12216.000 12256.000 12296.000 12336.000 12368.000 12408.000 12448.000 12488.000 12528.000 12568.000 12600.000 12640.000 12672.000 12712.000 12744.000 12784.000 12816.000 12856.000 12888.000 12928.000 12968.000 13000.000 13040.000 13080.000 13112.000 13152.000 13184.000 13216.000 13248.000 13280.000 13320.000 13352.000 13384.000 13416.000 13448.000 13480.000 13512.000 13552.000 13584.000 13616.000 13656.000 13680.000 13712.000 13736.000 13768.000 13792.000 13824.000 13848.000 13880.000 13904.000 13936.000 13960.000 13992.000 14016.000 14048.000 14072.000 14096.000 14112.000 14136.000 14160.000 14176.000 14200.000 14224.000 14240.000 14264.000 14288.000 14304.000 14328.000 14352.000 14360.000 14376.000 14392.000 14400.000 14416.000 14432.000 14440.000 14456.000 14472.000 14480.000 14496.000 14512.000 14520.000 14528.000 14528.000 14536.000 14536.000 14544.000 14544.000 14552.000 14560.000 14560.000 14568.000 14568.000 14576.000 14576.000 14568.000 14568.000 14560.000 14560.000 14552.000 14544.000 14544.000 14536.000 14536.000 14528.000 14528.000 14520.000 14512.000 14496.000 14480.000 14472.000 14456.000 14440.000 14432.000 14416.000 14400.000 14392.000 14376.000 14360.000 14352.000 14328.000 14304.000 14288.000 14264.000 14240.000 14224.000 14200.000 14176.000 14160.000 14136.000 14112.000 14096.000 14072.000 14048.000 14016.000 13992.000 13960.000 13936.000 13904.000 13880.000 13848.000 13824.000 13792.000 13768.000 13736.000 13712.000 13680.000 13656.000 13616.000 13584.000 13552.000 13520.000 13480.000 13448.000 13416.000 13384.000 13352.000 13320.000 13280.000 13248.000 13216.000 13184.000 13152.000 13112.000 13080.000 13040.000 13000.000 12968.000 12928.000 12888.000 12856.000 12816.000 12784.000 12744.000 12712.000 12672.000 12640.000 12600.000 12568.000 12528.000 12488.000 12448.000 12408.000 12368.000 12336.000 12296.000 12256.000 12216.000 12176.000 12136.000 12096.000 12056.000 12016.000 11976.000 11944.000 11904.000 11864.000 11824.000 11792.000 11752.000 11712.000 11664.000 11624.000 11584.000 11544.000 11504.000 11464.000 11424.000 11384.000 11344.000 11312.000 11272.000 11232.000 11192.000 11152.000 11120.000 2.158 2.154 11008.000 10968.000 10936.000 10896.000
10920.000 10952.000 10992.000 11024.000 11064.000 11104.000 11136.000 11176.000 11216.000 11248.000 11288.000 11328.000 11368.000 11408.000 11448.000 11488.000 11528.000 11568.000 11608.000 11648.000 11688.000 11728.000 11776.000 11808.000 11848.000 11888.000 11928.000 11960.000 12000.000 12040.000 12080.000 12120.000 12160.000 12200.000 12240.000 12280.000 12320.000 12360.000 12400.000 12440.000 12480.000 12520.000 12560.000 12600.000 12632.000 12672.000 12704.000 12744.000 12776.000 12816.000 12848.000 12888.000 12928.000 12960.000 13000.000 13040.000 13072.000 13112.000 13152.000 13192.000 13224.000 13256.000 13288.000 13320.000 13352.000 13384.000 13416.000 13456.000 13488.000 13520.000 13552.000 13584.000 13624.000 13656.000 13688.000 13720.000 13752.000 13776.000 13808.000 13832.000 13864.000 13888.000 13920.000 13944.000 13976.000 14000.000 14032.000 14056.000 14088.000 14112.000 14136.000 14160.000 14176.000 14200.000 14216.000 14240.000 14264.000 14280.000 14304.000 14328.000 14344.000 14368.000 14392.000 14408.000 14416.000 14432.000 14448.000 14456.000 14472.000 14488.000 14496.000 14512.000 14528.000 14536.000 14552.000 14560.000 14568.000 14576.000 14576.000 14584.000 14584.000 14592.000 14592.000 14600.000 14608.000 14608.000 14616.000 14616.000 14616.000 14616.000 14608.000 14608.000 14600.000 14592.000 14592.000 14584.000 14584.000 14576.000 14576.000 14568.000 14560.000 14552.000 14536.000 14528.000 14512.000 14496.000 14488.000 14472.000 14456.000 14448.000 14432.000 14416.000 14408.000 14392.000 14368.000 14352.000 14328.000 14304.000 14280.000 14264.000 14240.000 14216.000 14200.000 14176.000 14160.000 14136.000 14112.000 14088.000 14056.000 14032.000 14000.000 13976.000 13944.000 13920.000 13888.000 13864.000 13832.000 13808.000 13776.000 13752.000 13720.000 13688.000 13656.000 13624.000 13584.000 13552.000 13520.000 13488.000 13456.000 13416.000 13384.000 13352.000 13320.000 13288.000 13256.000 13224.000 13192.000 13152.000 13112.000 13072.000 13040.000 13000.000 12960.000 12928.000 12888.000 12848.000 12816.000 12776.000 12744.000 12704.000 12672.000 12632.000 12600.000 12560.000 12520.000 12480.000 12440.000 12400.000 12360.000 12320.000 12280.000 12240.000 12200.000 12160.000 12120.000 12080.000 12040.000 12000.000 11960.000 11928.000 11888.000 11848.000 11816.000 11776.000 11728.000 11688.000 11648.000 11608.000 11568.000 11528.000 11488.000 11448.000 11408.000 11368.000 11328.000 11288.000 11248.000 11216.000 11176.000 11136.000 2.158 2.154 11024.000 10992.000 10952.000 10920.000
10936.000 10976.000 11008.000 11048.000 11080.000 11120.000 11160.000 11192.000 11232.000 11272.000 11312.000 11352.000 11392.000 11424.000 11464.000 11504.000 11544.000 11584.000 11632.000 11672.000 11712.000 11752.000 11792.000 11832.000 11872.000 11912.000 11952.000 11984.000 12024.000 12064.000 12104.000 12144.000 12184.000 12224.000 12264.000 12304.000 12344.000 12384.000 12424.000 12464.000 12512.000 12552.000 12592.000 12632.000 12664.000 12704.000 12736.000 12776.000 12808.000 12848.000 12888.000 12920.000 12960.000 12992.000 13032.000 13072.000 13112.000 13144.000 13184.000 13224.000 13256.000 13288.000 13320.000 13360.000 13392.000 13424.000 13456.000 13488.000 13520.000 13560.000 13592.000 13624.000 13656.000 13696.000 13728.000 13760.000 13784.000 13816.000 13840.000 13872.000 13896.000 13928.000 13952.000 13984.000 14016.000 14040.000 14072.000 14096.000 14128.000 14152.000 14176.000 14200.000 14216.000 14240.000 14264.000 14280.000 14304.000 14328.000 14344.000 14368.000 14392.000 14408.000 14432.000 14448.000 14464.000 14472.000 14488.000 14504.000 14512.000 14528.000 14544.000 14552.000 14568.000 14584.000 14592.000 14608.000 14608.000 14616.000 14624.000 14624.000 14632.000 14632.000 14640.000 14640.000 14648.000 14656.000 14656.000 14664.000 14664.000 14656.000 14656.000 14648.000 14640.000 14640.000 14632.000 14632.000 14624.000 14624.000 14616.000 14608.000 14608.000 14592.000 14584.000 14568.000 14552.000 14544.000 14528.000 14512.000 14504.000 14488.000 14472.000 14464.000 14448.000 14432.000 14416.000 14392.000 14368.000 14344.000 14328.000 14304.000 14280.000 14264.000 14240.000 14216.000 14200.000 14176.000 14152.000 14128.000 14096.000 14072.000 14040.000 14016.000 13984.000 13960.000 13928.000 13896.000 13872.000 13840.000 13816.000 13792.000 13760.000 13728.000 13696.000 13656.000 13624.000 13592.000 13560.000 13520.000 13488.000 13456.000 13424.000 13392.000 13360.000 13320.000 13288.000 13256.000 13224.000 13184.000 13144.000 13112.000 13072.000 13032.000 12992.000 12960.000 12920.000 12888.000 12848.000 12808.000 12776.000 12736.000 12704.000 12664.000 12632.000 12592.000 12552.000 12512.000 12464.000 12424.000 12384.000 12344.000 12304.000 12264.000 12224.000 12184.000 12144.000 12104.000 12064.000 12024.000 11984.000 11952.000 11912.000 11872.000 11832.000 11792.000 11752.000 11712.000 11672.000 11632.000 11592.000 11544.000 11504.000 11464.000 11432.000 11392.000 11352.000 11312.000 11272.000 11232.000 11192.000 11160.000 2.158 2.154 11048.000 11008.000 10976.000 10936.000
10952.000 10992.000 11032.000 11064.000 11104.000 11144.000 11176.000 11216.000 11256.000 11296.000 11328.000 11368.000 11408.000 11448.000 11488.000 11528.000 11568.000 11608.000 11648.000 11688.000 11736.000 11776.000 11816.000 11856.000 11896.000 11936.000 11968.000 12008.000 12048.000 12088.000 12128.000 12168.000 12208.000 12248.000 12288.000 12328.000 12368.000 12408.000 12448.000 12496.000 12536.000 12576.000 12616.000 12656.000 12696.000 12728.000 12768.000 12808.000 12848.000 12880.000 12920.000 12952.000 12992.000 13032.000 13072.000 13104.000 13144.000 13184.000 13224.000 13264.000 13296.000 13328.000 13360.000 13392.000 13424.000 13456.000 13496.000 13528.000 13560.000 13592.000 13632.000 13664.000 13696.000 13736.000 13768.000 13800.000 13824.000 13856.000 13880.000 13912.000 13936.000 13968.000 13992.000 14024.000 14056.000 14080.000 14112.000 14136.000 14168.000 14192.000 14216.000 14240.000 14256.000 14280.000 14304.000 14328.000 14344.000 14368.000 14392.000 14408.000 14432.000 14456.000 14480.000 14488.000 14504.000 14520.000 14528.000 14544.000 14560.000 14568.000 14584.000 14600.000 14608.000 14624.000 14640.000 14648.000 14656.000 14664.000 14664.000 14672.000 14672.000 14680.000 14680.000 14688.000 14688.000 14696.000 14704.000 14704.000 14704.000 14704.000 14696.000 14688.000 14688.000 14680.000 14680.000 14672.000 14672.000 14664.000 14664.000 14656.000 14648.000 14640.000 14624.000 14608.000 14600.000 14584.000 14568.000 14560.000 14544.000 14528.000 14520.000 14504.000 14488.000 14480.000 14456.000 14432.000 14408.000 14392.000 14368.000 14344.000 14328.000 14304.000 14280.000 14256.000 14240.000 14216.000 14192.000 14168.000 14144.000 14112.000 14080.000 14056.000 14024.000 13992.000 13968.000 13936.000 13912.000 13880.000 13856.000 13824.000 13800.000 13768.000 13736.000 13696.000 13664.000 13632.000 13592.000 13560.000 13528.000 13496.000 13456.000 13424.000 13392.000 13360.000 13328.000 13296.000 13264.000 13224.000 13184.000 13144.000 13104.000 13072.000 13032.000 12992.000 12952.000 12920.000 12880.000 12848.000 12808.000 12768.000 12728.000 12696.000 12656.000 12616.000 12576.000 12536.000 12496.000 12448.000 12408.000 12368.000 12328.000 12288.000 12248.000 12208.000 12168.000 12128.000 12088.000 12048.000 12008.000 11968.000 11936.000 11896.000 11856.000 11816.000 11776.000 11736.000 11688.000 11648.000 11608.000 11568.000 11528.000 11488.000 11448.000 11408.000 11368.000 11328.000 11296.000 11256.000 11216.000 11176.000 2.158 2.154 11064.000 11032.000 10992.000 10960.000
10976.000 11008.000 11048.000 11088.000 11120.000 11160.000 11200.000 11240.000 11272.000 11312.000 11352.000 11392.000 11432.000 11472.000 11512.000 11552.000 11592.000 11632.000 11672.000 11712.000 11752.000 11800.000 11840.000 11880.000 11920.000 11952.000 11992.000 12032.000 12072.000 12112.000 12152.000 12192.000 12232.000 12272.000 12312.000 12352.000 12392.000 12432.000 12472.000 12520.000 12560.000 12600.000 12648.000 12680.000 12720.000 12760.000 12792.000 12832.000 12872.000 12912.000 12952.000 12984.000 13024.000 13064.000 13104.000 13144.000 13176.000 13216.000 13256.000 13296.000 13328.000 13360.000 13400.000 13432.000 13464.000 13496.000 13528.000 13568.000 13600.000 13632.000 13664.000 13704.000 13736.000 13768.000 13808.000 13840.000 13864.000 13896.000 13920.000 13952.000 13976.000 14008.000 14032.000 14064.000 14096.000 14120.000 14152.000 14184.000 14208.000 14240.000 14256.000 14280.000 14304.000 14320.000 14344.000 14368.000 14384.000 14408.000 14432.000 14456.000 14472.000 14496.000 14520.000 14536.000 14544.000 14560.000 14576.000 14584.000 14600.000 14616.000 14624.000 14640.000 14656.000 14672.000 14680.000 14696.000 14696.000 14704.000 14712.000 14712.000 14720.000 14720.000 14728.000 14728.000 14736.000 14744.000 14744.000 14752.000 14752.000 14744.000 14744.000 14736.000 14728.000 14728.000 14720.000 14720.000 14712.000 14712.000 14704.000 14696.000 14696.000 14680.000 14672.000 14656.000 14640.000 14624.000 14616.000 14600.000 14584.000 14576.000 14560.000 14544.000 14536.000 14520.000 14496.000 14472.000 14456.000 14432.000 14408.000 14384.000 14368.000 14344.000 14320.000 14304.000 14280.000 14256.000 14240.000 14208.000 14184.000 14152.000 14120.000 14096.000 14064.000 14040.000 14008.000 13976.000 13952.000 13920.000 13896.000 13864.000 13840.000 13808.000 13768.000 13736.000 13704.000 13664.000 13632.000 13600.000 13568.000 13528.000 13496.000 13464.000 13432.000 13400.000 13360.000 13328.000 13296.000 13256.000 13216.000 13184.000 13144.000 13104.000 13064.000 13024.000 12984.000 12952.000 12912.000 12872.000 12832.000 12792.000 12760.000 12720.000 12680.000 12648.000 12600.000 12560.000 12520.000 12480.000 12432.000 12392.000 12352.000 12312.000 12272.000 12232.000 12192.000 12152.000 12112.000 12072.000 12032.000 11992.000 11960.000 11920.000 11880.000 11840.000 11800.000 11752.000 11712.000 11672.000 11632.000 11592.000 11552.000 11512.000 11472.000 11432.000 11392.000 11352.000 11312.000 11272.000 11240.000 11200.000 2.158 2.154 11088.000 11048.000 11008.000 10976.000
10992.000 11032.000 11072.000 11104.000 11144.000 11184.000 11216.000 11256.000 11296.000 11336.000 11376.000 11408.000 11448.000 11488.000 11528.000 11568.000 11616.000 11656.000 11696.000 11736.000 11776.000 11816.000 11864.000 11904.000 11944.000 11976.000 12016.000 12056.000 12096.000 12136.000 12176.000 12216.000 12256.000 12296.000 12336.000 12376.000 12416.000 12456.000 12504.000 12544.000 12584.000 12632.000 12672.000 12712.000 12744.000 12784.000 12824.000 12856.000 12896.000 12936.000 12976.000 13016.000 13056.000 13096.000 13136.000 13176.000 13216.000 13256.000 13296.000 13336.000 13368.000 13400.000 13432.000 13464.000 13496.000 13536.000 13568.000 13600.000 13640.000 13672.000 13704.000 13736.000 13776.000 13808.000 13848.000 13880.000 13904.000 13936.000 13960.000 13992.000 14016.000 14048.000 14080.000 14104.000 14136.000 14160.000 14192.000 14224.000 14248.000 14280.000 14304.000 14320.000 14344.000 14368.000 14384.000 14408.000 14432.000 14448.000 14472.000 14496.000 14520.000 14544.000 14560.000 14576.000 14592.000 14600.000 14616.000 14632.000 14648.000 14656.000 14672.000 14688.000 14696.000 14712.000 14728.000 14736.000 14744.000 14752.000 14752.000 14760.000 14760.000 14768.000 14768.000 14776.000 14784.000 14784.000 14792.000 14792.000 14792.000 14792.000 14784.000 14784.000 14776.000 14768.000 14768.000 14760.000 14760.000 14752.000 14752.000 14744.000 14736.000 14728.000 14712.000 14696.000 14688.000 14672.000 14656.000 14648.000 14632.000 14616.000 14600.000 14592.000 14576.000 14560.000 14544.000 14520.000 14496.000 14472.000 14456.000 14432.000 14408.000 14384.000 14368.000 14344.000 14320.000 14304.000 14280.000 14248.000 14224.000 14192.000 14160.000 14136.000 14104.000 14080.000 14048.000 14016.000 13992.000 13960.000 13936.000 13904.000 13880.000 13848.000 13808.000 13776.000 13744.000 13704.000 13672.000 13640.000 13600.000 13568.000 13536.000 13504.000 13464.000 13432.000 13400.000 13368.000 13336.000 13296.000 13256.000 13216.000 13176.000 13136.000 13096.000 13056.000 13016.000 12976.000 12936.000 12896.000 12856.000 12824.000 12784.000 12744.000 12712.000 12672.000 12632.000 12584.000 12544.000 12504.000 12456.000 12416.000 12376.000 12336.000 12296.000 12256.000 12216.000 12176.000 12136.000 12096.000 12056.000 12016.000 11976.000 11944.000 11904.000 11864.000 11816.000 11776.000 11736.000 11696.000 11656.000 11616.000 11568.000 11528.000 11488.000 11448.000 11416.000 11376.000 11336.000 11296.000 11256.000 11216.000 2.158 2.154 11104.000 11072.000 11032.000 10992.000
11016.000 11048.000 11088.000 11128.000 11160.000 11200.000 11240.000 11280.000 11312.000 11352.000 11392.000 11432.000 11472.000 11512.000 11552.000 11592.000 11632.000 11672.000 11720.000 11760.000 11800.000 11840.000 11888.000 11928.000 11960.000 12000.000 12040.000 12080.000 12120.000 12160.000 12200.000 12240.000 12280.000 12320.000 12360.000 12400.000 12440.000 12488.000 12528.000 12568.000 12608.000 12656.000 12696.000 12736.000 12776.000 12808.000 12848.000 12888.000 12928.000 12960.000 13000.000 13040.000 13080.000 13120.000 13160.000 13200.000 13240.000 13280.000 13320.000 13368.000 13400.000 13432.000 13472.000 13504.000 13536.000 13568.000 13608.000 13640.000 13672.000 13712.000 13744.000 13776.000 13816.000 13848.000 13888.000 13920.000 13944.000 13976.000 14000.000 14032.000 14056.000 14088.000 14120.000 14144.000 14176.000 14208.000 14232.000 14264.000 14296.000 14320.000 14344.000 14360.000 14384.000 14408.000 14432.000 14448.000 14472.000 14496.000 14520.000 14536.000 14560.000 14584.000 14608.000 14616.000 14632.000 14648.000 14664.000 14672.000 14688.000 14704.000 14712.000 14728.000 14744.000 14760.000 14768.000 14784.000 14792.000 14792.000 14800.000 14800.000 14808.000 14808.000 14816.000 14824.000 14824.000 14832.000 14832.000 14840.000 14840.000 14832.000 14832.000 14824.000 14824.000 14816.000 14808.000 14808.000 14800.000 14800.000 14792.000 14792.000 14784.000 14768.000 14760.000 14744.000 14728.000 14712.000 14704.000 14688.000 14672.000 14664.000 14648.000 14632.000 14624.000 14608.000 14584.000 14560.000 14536.000 14520.000 14496.000 14472.000 14448.000 14432.000 14408.000 14384.000 14360.000 14344.000 14320.000 14296.000 14264.000 14232.000 14208.000 14176.000 14144.000 14120.000 14088.000 14056.000 14032.000 14000.000 13976.000 13944.000 13920.000 13888.000 13848.000 13816.000 13776.000 13744.000 13712.000 13672.000 13640.000 13608.000 13568.000 13536.000 13504.000 13472.000 13432.000 13400.000 13368.000 13320.000 13280.000 13240.000 13200.000 13160.000 13120.000 13080.000 13040.000 13000.000 12960.000 12928.000 12888.000 12848.000 12808.000 12776.000 12736.000 12696.000 12656.000 12608.000 12568.000 12528.000 12488.000 12440.000 12400.000 12360.000 12320.000 12280.000 12240.000 12200.000 12160.000 12120.000 12080.000 12040.000 12000.000 11960.000 11928.000 11888.000 11840.000 11800.000 11760.000 11720.000 11672.000 11632.000 11592.000 11552.000 11512.000 11472.000 11432.000 11392.000 11352.000 11312.000 11280.000 11240.000 2.158 2.154 11128.000 11088.000 11048.000 11016.000
11032.000 11072.000 11104.000 11144.000 11184.000 11224.000 11256.000 11296.000 11336.000 11376.000 11416.000 11456.000 11496.000 11536.000 11576.000 11616.000 11656.000 11696.000 11736.000 11784.000 11824.000 11864.000 11904.000 11952.000 11984.000 12024.000 12064.000 12104.000 12144.000 12184.000 12224.000 12264.000 12304.000 12344.000 12384.000 12424.000 12464.000 12512.000 12552.000 12592.000 12640.000 12680.000 12720.000 12760.000 12800.000 12840.000 12872.000 12912.000 12952.000 12992.000 13032.000 13072.000 13112.000 13152.000 13192.000 13232.000 13272.000 13312.000 13352.000 13392.000 13432.000 13464.000 13496.000 13536.000 13568.000 13608.000 13640.000 13680.000 13712.000 13744.000 13784.000 13816.000 13856.000 13888.000 13928.000 13960.000 13984.000 14016.000 14040.000 14072.000 14096.000 14128.000 14160.000 14184.000 14216.000 14248.000 14272.000 14304.000 14336.000 14360.000 14384.000 14408.000 14424.000 14448.000 14472.000 14496.000 14512.000 14536.000 14560.000 14584.000 14608.000 14624.000 14648.000 14664.000 14680.000 14688.000 14704.000 14720.000 14736.000 14744.000 14760.000 14776.000 14784.000 14800.000 14816.000 14832.000 14832.000 14840.000 14840.000 14848.000 14848.000 14856.000 14864.000 14864.000 14872.000 14872.000 14880.000 14888.000 14888.000 14880.000 14872.000 14872.000 14864.000 14864.000 14856.000 14848.000 14848.000 14840.000 14840.000 14832.000 14832.000 14816.000 14800.000 14784.000 14776.000 14760.000 14744.000 14736.000 14720.000 14704.000 14688.000 14680.000 14664.000 14648.000 14624.000 14608.000 14584.000 14560.000 14536.000 14512.000 14496.000 14472.000 14448.000 14424.000 14408.000 14384.000 14360.000 14336.000 14304.000 14272.000 14248.000 14216.000 14184.000 14160.000 14128.000 14096.000 14072.000 14040.000 14016.000 13984.000 13960.000 13928.000 13888.000 13856.000 13816.000 13784.000 13744.000 13712.000 13680.000 13640.000 13608.000 13568.000 13536.000 13496.000 13464.000 13432.000 13392.000 13352.000 13312.000 13272.000 13232.000 13192.000 13152.000 13112.000 13072.000 13032.000 12992.000 12952.000 12912.000 12872.000 12840.000 12800.000 12760.000 12720.000 12680.000 12640.000 12592.000 12552.000 12512.000 12464.000 12424.000 12384.000 12344.000 12304.000 12264.000 12224.000 12184.000 12144.000 12104.000 12064.000 12024.000 11984.000 11952.000 11904.000 11864.000 11824.000 11784.000 11736.000 11696.000 11656.000 11616.000 11576.000 11536.000 11496.000 11456.000 11416.000 11376.000 11336.000 11296.000 11256.000 2.158 2.154 11144.000 11104.000 11072.000 11032.000
11056.000 11088.000 11128.000 11168.000 11200.000 11240.000 11280.000 11320.000 11360.000 11392.000 11432.000 11472.000 11512.000 11552.000 11592.000 11640.000 11680.000 11720.000 11760.000 11800.000 11848.000 11888.000 11928.000 11968.000 12008.000 12048.000 12088.000 12128.000 12168.000 12208.000 12248.000 12288.000 12328.000 12368.000 12408.000 12448.000 12496.000 12536.000 12576.000 12616.000 12664.000 12704.000 12752.000 12784.000 12824.000 12864.000 12904.000 12936.000 12976.000 13016.000 13056.000 13096.000 13136.000 13176.000 13216.000 13256.000 13296.000 13336.000 13384.000 13424.000 13456.000 13496.000 13528.000 13560.000 13600.000 13632.000 13672.000 13704.000 13744.000 13776.000 13816.000 13856.000 13888.000 13928.000 13960.000 14000.000 14024.000 14056.000 14080.000 14112.000 14144.000 14168.000 14200.000 14232.000 14256.000 14288.000 14320.000 14344.000 14376.000 14408.000 14424.000 14448.000 14472.000 14496.000 14512.000 14536.000 14560.000 14584.000 14600.000 14624.000 14648.000 14672.000 14696.000 14704.000 14720.000 14736.000 14752.000 14760.000 14776.000 14792.000 14808.000 14816.000 14832.000 14848.000 14864.000 14872.000 14880.000 14880.000 14888.000 14896.000 14896.000 14904.000 14904.000 14912.000 14912.000 14920.000 14928.000 14928.000 14928.000 14928.000 14920.000 14912.000 14912.000 14904.000 14904.000 14896.000 14896.000 14888.000 14880.000 14880.000 14872.000 14864.000 14848.000 14832.000 14816.000 14808.000 14792.000 14776.000 14760.000 14752.000 14736.000 14720.000 14704.000 14696.000 14672.000 14648.000 14624.000 14600.000 14584.000 14560.000 14536.000 14512.000 14496.000 14472.000 14448.000 14424.000 14408.000 14376.000 14344.000 14320.000 14288.000 14256.000 14232.000 14200.000 14168.000 14144.000 14112.000 14080.000 14056.000 14024.000 14000.000 13968.000 13928.000 13888.000 13856.000 13816.000 13776.000 13744.000 13704.000 13672.000 13632.000 13600.000 13560.000 13528.000 13496.000 13456.000 13424.000 13384.000 13336.000 13296.000 13256.000 13216.000 13176.000 13136.000 13096.000 13056.000 13016.000 12976.000 12944.000 12904.000 12864.000 12824.000 12784.000 12752.000 12704.000 12664.000 12616.000 12576.000 12536.000 12496.000 12448.000 12408.000 12368.000 12328.000 12288.000 12248.000 12208.000 12168.000 12128.000 12088.000 12048.000 12008.000 11968.000 11928.000 11888.000 11848.000 11800.000 11760.000 11720.000 11680.000 11640.000 11600.000 11552.000 11512.000 11472.000 11432.000 11400.000 11360.000 11320.000 11280.000 2.158 2.154 11168.000 11128.000 11088.000 11056.000
11072.000 11112.000 11144.000 11184.000 11224.000 11264.000 11296.000 11336.000 11376.000 11416.000 11456.000 11496.000 11536.000 11576.000 11616.000 11656.000 11696.000 11744.000 11784.000 11824.000 11864.000 11912.000 11952.000 11992.000 12032.000 12072.000 12112.000 12152.000 12192.000 12232.000 12272.000 12312.000 12352.000 12392.000 12432.000 12472.000 12520.000 12560.000 12600.000 12648.000 12688.000 12728.000 12776.000 12816.000 12848.000 12888.000 12928.000 12968.000 13008.000 13048.000 13088.000 13128.000 13168.000 13208.000 13248.000 13288.000 13328.000 13368.000 13408.000 13448.000 13488.000 13520.000 13560.000 13592.000 13632.000 13664.000 13704.000 13736.000 13776.000 13808.000 13848.000 13880.000 13920.000 13960.000 13992.000 14032.000 14056.000 14088.000 14120.000 14152.000 14184.000 14208.000 14240.000 14272.000 14296.000 14328.000 14360.000 14392.000 14416.000 14448.000 14472.000 14488.000 14512.000 14536.000 14560.000 14576.000 14600.000 14624.000 14648.000 14672.000 14696.000 14712.000 14736.000 14752.000 14768.000 14776.000 14792.000 14808.000 14824.000 14832.000 14848.000 14864.000 14880.000 14888.000 14904.000 14920.000 14920.000 14928.000 14936.000 14936.000 14944.000 14944.000 14952.000 14960.000 14960.000 14968.000 14968.000 14976.000 14976.000 14968.000 14968.000 14960.000 14960.000 14952.000 14944.000 14944.000 14936.000 14936.000 14928.000 14920.000 14920.000 14904.000 14888.000 14880.000 14864.000 14848.000 14832.000 14824.000 14808.000 14792.000 14776.000 14768.000 14752.000 14736.000 14712.000 14696.000 14672.000 14648.000 14624.000 14600.000 14576.000 14560.000 14536.000 14512.000 14488.000 14472.000 14448.000 14416.000 14392.000 14360.000 14328.000 14296.000 14272.000 14240.000 14208.000 14184.000 14152.000 14120.000 14088.000 14056.000 14032.000 14000.000 13960.000 13920.000 13880.000 13848.000 13808.000 13776.000 13736.000 13704.000 13664.000 13632.000 13592.000 13560.000 13520.000 13488.000 13448.000 13408.000 13368.000 13328.000 13288.000 13248.000 13208.000 13168.000 13128.000 13088.000 13048.000 13008.000 12968.000 12928.000 12888.000 12848.000 12816.000 12776.000 12728.000 12688.000 12648.000 12600.000 12560.000 12520.000 12480.000 12432.000 12392.000 12352.000 12312.000 12272.000 12232.000 12192.000 12152.000 12112.000 12072.000 12032.000 11992.000 11952.000 11912.000 11864.000 11824.000 11784.000 11744.000 11696.000 11656.000 11616.000 11576.000 11536.000 11496.000 11456.000 11416.000 11376.000 11336.000 11304.000 2.158 2.154 11184.000 11144.000 11112.000 11072.000
11096.000 11128.000 11168.000 11208.000 11240.000 11280.000 11320.000 11360.000 11400.000 11440.000 11480.000 11520.000 11560.000 11600.000 11640.000 11680.000 11720.000 11760.000 11808.000 11848.000 11888.000 11936.000 11976.000 12016.000 12056.000 12096.000 12136.000 12176.000 12216.000 12256.000 12296.000 12336.000 12376.000 12416.000 12456.000 12504.000 12544.000 12584.000 12632.000 12672.000 12712.000 12760.000 12800.000 12840.000 12880.000 12920.000 12952.000 12992.000 13032.000 13072.000 13112.000 13152.000 13192.000 13232.000 13272.000 13312.000 13352.000 13400.000 13440.000 13480.000 13520.000 13552.000 13584.000 13624.000 13656.000 13696.000 13728.000 13768.000 13800.000 13840.000 13880.000 13912.000 13952.000 13992.000 14024.000 14064.000 14088.000 14120.000 14152.000 14184.000 14216.000 14240.000 14272.000 14304.000 14336.000 14368.000 14400.000 14432.000 14464.000 14488.000 14512.000 14536.000 14560.000 14576.000 14600.000 14624.000 14648.000 14672.000 14688.000 14712.000 14736.000 14760.000 14784.000 14800.000 14808.000 14824.000 14840.000 14856.000 14864.000 14880.000 14896.000 14912.000 14920.000 14936.000 14952.000 14968.000 14968.000 14976.000 14976.000 14984.000 14984.000 14992.000 15000.000 15000.000 15008.000 15008.000 15016.000 15024.000 15024.000 15016.000 15008.000 15008.000 15000.000 15000.000 14992.000 14992.000 14984.000 14976.000 14976.000 14968.000 14968.000 14952.000 14936.000 14920.000 14912.000 14896.000 14880.000 14864.000 14856.000 14840.000 14824.000 14808.000 14800.000 14784.000 14760.000 14736.000 14712.000 14688.000 14672.000 14648.000 14624.000 14600.000 14576.000 14560.000 14536.000 14512.000 14488.000 14464.000 14432.000 14400.000 14368.000 14336.000 14304.000 14272.000 14240.000 14216.000 14184.000 14152.000 14120.000 14088.000 14064.000 14024.000 13992.000 13952.000 13912.000 13880.000 13840.000 13800.000 13768.000 13728.000 13696.000 13656.000 13624.000 13584.000 13552.000 13520.000 13480.000 13440.000 13400.000 13352.000 13312.000 13272.000 13232.000 13192.000 13152.000 13112.000 13072.000 13032.000 12992.000 12952.000 12920.000 12880.000 12840.000 12800.000 12760.000 12712.000 12672.000 12632.000 12584.000 12544.000 12504.000 12456.000 12416.000 12376.000 12336.000 12296.000 12256.000 12216.000 12176.000 12136.000 12096.000 12056.000 12016.000 11976.000 11936.000 11888.000 11848.000 11808.000 11760.000 11720.000 11680.000 11640.000 11600.000 11560.000 11520.000 11480.000 11440.000 11400.000 11360.000 11320.000 2.158 2.154 11208.000 11168.000 11128.000 11096.000
11112.000 11152.000 11184.000 11224.000 11264.000 11304.000 11344.000 11384.000 11416.000 11456.000 11496.000 11536.000 11576.000 11624.000 11664.000 11704.000 11744.000 11784.000 11824.000 11872.000 11912.000 11960.000 12000.000 12040.000 12080.000 12120.000 12160.000 12200.000 12240.000 12280.000 12320.000 12360.000 12400.000 12440.000 12488.000 12528.000 12568.000 12608.000 12656.000 12696.000 12744.000 12784.000 12824.000 12864.000 12904.000 12944.000 12984.000 13024.000 13064.000 13104.000 13144.000 13184.000 13224.000 13264.000 13304.000 13344.000 13384.000 13424.000 13464.000 13512.000 13544.000 13584.000 13616.000 13656.000 13688.000 13728.000 13760.000 13800.000 13832.000 13872.000 13912.000 13944.000 13984.000 14024.000 14056.000 14096.000 14120.000 14152.000 14184.000 14216.000 14248.000 14280.000 14304.000 14336.000 14368.000 14400.000 14432.000 14464.000 14496.000 14528.000 14552.000 14568.000 14592.000 14616.000 14640.000 14664.000 14688.000 14712.000 14736.000 14760.000 14784.000 14800.000 14824.000 14840.000 14856.000 14872.000 14880.000 14896.000 14912.000 14928.000 14936.000 14952.000 14968.000 14984.000 15000.000 15008.000 15016.000 15016.000 15024.000 15032.000 15032.000 15040.000 15040.000 15048.000 15056.000 15056.000 15064.000 15064.000 15064.000 15064.000 15056.000 15056.000 15048.000 15040.000 15040.000 15032.000 15032.000 15024.000 15016.000 15016.000 15008.000 15000.000 14984.000 14968.000 14952.000 14936.000 14928.000 14912.000 14896.000 14880.000 14872.000 14856.000 14840.000 14824.000 14808.000 14784.000 14760.000 14736.000 14712.000 14688.000 14664.000 14640.000 14616.000 14592.000 14568.000 14552.000 14528.000 14496.000 14464.000 14432.000 14400.000 14368.000 14336.000 14304.000 14280.000 14248.000 14216.000 14184.000 14152.000 14120.000 14096.000 14056.000 14024.000 13984.000 13944.000 13912.000 13872.000 13832.000 13800.000 13760.000 13728.000 13688.000 13656.000 13616.000 13584.000 13544.000 13512.000 13464.000 13424.000 13384.000 13344.000 13304.000 13264.000 13224.000 13184.000 13144.000 13104.000 13064.000 13024.000 12984.000 12944.000 12904.000 12864.000 12832.000 12784.000 12744.000 12696.000 12656.000 12608.000 12568.000 12528.000 12488.000 12440.000 12400.000 12360.000 12320.000 12280.000 12240.000 12200.000 12160.000 12120.000 12080.000 12040.000 12000.000 11960.000 11912.000 11872.000 11832.000 11784.000 11744.000 11704.000 11664.000 11624.000 11576.000 11536.000 11496.000 11456.000 11416.000 11384.000 11344.000 2.158 2.154 11224.000 11184.000 11152.000 11112.000
11128.000 11168.000 11200.000 11240.000 11280.000 11320.000 11360.000 11400.000 11440.000 11480.000 11520.000 11560.000 11600.000 11640.000 11680.000 11728.000 11768.000 11808.000 11848.000 11896.000 11936.000 11976.000 12024.000 12064.000 12104.000 12144.000 12184.000 12224.000 12264.000 12304.000 12344.000 12384.000 12424.000 12464.000 12512.000 12552.000 12592.000 12640.000 12680.000 12720.000 12768.000 12808.000 12856.000 12896.000 12928.000 12968.000 13008.000 13048.000 13088.000 13128.000 13168.000 13208.000 13248.000 13288.000 13328.000 13368.000 13416.000 13456.000 13496.000 13536.000 13576.000 13608.000 13648.000 13680.000 13720.000 13752.000 13792.000 13832.000 13864.000 13904.000 13936.000 13976.000 14016.000 14056.000 14088.000 14128.000 14152.000 14184.000 14216.000 14248.000 14280.000 14312.000 14344.000 14368.000 14400.000 14432.000 14464.000 14496.000 14528.000 14560.000 14584.000 14608.000 14632.000 14656.000 14680.000 14696.000 14720.000 14744.000 14768.000 14792.000 14816.000 14840.000 14864.000 14880.000 14896.000 14912.000 14928.000 14944.000 14952.000 14968.000 14984.000 15000.000 15016.000 15032.000 15040.000 15056.000 15064.000 15064.000 15072.000 15072.000 15080.000 15088.000 15088.000 15096.000 15096.000 15104.000 15112.000 15112.000 15112.000 15112.000 15104.000 15096.000 15096.000 15088.000 15088.000 15080.000 15072.000 15072.000 15064.000 15064.000 15056.000 15040.000 15032.000 15016.000 15000.000 14984.000 14968.000 14952.000 14944.000 14928.000 14912.000 14896.000 14880.000 14864.000 14840.000 14816.000 14792.000 14768.000 14744.000 14720.000 14696.000 14680.000 14656.000 14632.000 14608.000 14584.000 14560.000 14528.000 14496.000 14464.000 14432.000 14400.000 14368.000 14344.000 14312.000 14280.000 14248.000 14216.000 14184.000 14152.000 14128.000 14088.000 14056.000 14016.000 13976.000 13936.000 13904.000 13864.000 13832.000 13792.000 13752.000 13720.000 13680.000 13648.000 13608.000 13576.000 13536.000 13496.000 13456.000 13416.000 13368.000 13328.000 13288.000 13248.000 13208.000 13168.000 13128.000 13088.000 13048.000 13008.000 12968.000 12928.000 12896.000 12856.000 12808.000 12768.000 12720.000 12680.000 12640.000 12592.000 12552.000 12512.000 12464.000 12424.000 12384.000 12344.000 12304.000 12264.000 12224.000 12184.000 12144.000 12104.000 12064.000 12024.000 11976.000 11936.000 11896.000 11848.000 11808.000 11768.000 11728.000 11680.000 11640.000 11600.000 11560.000 11520.000 11480.000 11440.000 11400.000 11360.000 2.158 2.154 11240.000 11200.000 11168.000 11128.000
11136.000 11176.000 11216.000 11256.000 11296.000 11336.000 11376.000 11416.000 11456.000 11496.000 11544.000 11584.000 11624.000 11664.000 11704.000 11744.000 11792.000 11832.000 11872.000 11912.000 11960.000 12000.000 12048.000 12088.000 12128.000 12168.000 12208.000 12248.000 12288.000 12328.000 12368.000 12408.000 12448.000 12496.000 12536.000 12576.000 12616.000 12664.000 12704.000 12752.000 12792.000 12840.000 12880.000 12920.000 12960.000 13000.000 13040.000 13080.000 13112.000 13152.000 13192.000 13240.000 13280.000 13320.000 13360.000 13400.000 13440.000 13488.000 13528.000 13568.000 13608.000 13640.000 13680.000 13712.000 13752.000 13784.000 13824.000 13856.000 13896.000 13936.000 13968.000 14008.000 14048.000 14088.000 14120.000 14160.000 14184.000 14216.000 14248.000 14280.000 14312.000 14344.000 14376.000 14408.000 14440.000 14472.000 14496.000 14528.000 14560.000 14592.000 14616.000 14640.000 14664.000 14688.000 14712.000 14736.000 14760.000 14784.000 14808.000 14832.000 14856.000 14880.000 14904.000 14920.000 14936.000 14944.000 14960.000 14976.000 14992.000 15008.000 15024.000 15040.000 15048.000 15064.000 15080.000 15096.000 15104.000 15104.000 15112.000 15112.000 15120.000 15128.000 15128.000 15136.000 15144.000 15144.000 15152.000 15152.000 15160.000 15152.000 15144.000 15144.000 15136.000 15128.000 15128.000 15120.000 15112.000 15112.000 15104.000 15104.000 15096.000 15080.000 15064.000 15048.000 15040.000 15024.000 15008.000 14992.000 14976.000 14960.000 14944.000 14936.000 14920.000 14904.000 14880.000 14856.000 14832.000 14808.000 14784.000 14760.000 14736.000 14712.000 14688.000 14664.000 14640.000 14616.000 14592.000 14568.000 14536.000 14504.000 14472.000 14440.000 14408.000 14376.000 14344.000 14312.000 14280.000 14248.000 14216.000 14192.000 14160.000 14120.000 14088.000 14048.000 14008.000 13968.000 13936.000 13896.000 13856.000 13824.000 13784.000 13752.000 13712.000 13680.000 13640.000 13608.000 13568.000 13528.000 13488.000 13440.000 13400.000 13360.000 13320.000 13280.000 13240.000 13200.000 13152.000 13112.000 13080.000 13040.000 13000.000 12960.000 12920.000 12880.000 12840.000 12792.000 12752.000 12704.000 12664.000 12616.000 12576.000 12536.000 12496.000 12448.000 12408.000 12368.000 12328.000 12288.000 12248.000 12208.000 12168.000 12128.000 12088.000 12048.000 12000.000 11960.000 11920.000 11872.000 11832.000 11792.000 11744.000 11704.000 11664.000 11624.000 11584.000 11544.000 11496.000 11456.000 11416.000 11376.000 2.158 2.154 11256.000 11216.000 11176.000 11136.000
11152.000 11192.000 11232.000 11272.000 11312.000 11352.000 11392.000 11432.000 11472.000 11512.000 11552.000 11600.000 11640.000 11680.000 11728.000 11768.000 11808.000 11856.000 11896.000 11936.000 11984.000 12024.000 12072.000 12112.000 12152.000 12192.000 12232.000 12272.000 12312.000 12352.000 12392.000 12432.000 12472.000 12520.000 12560.000 12600.000 12648.000 12688.000 12728.000 12776.000 12816.000 12864.000 12904.000 12944.000 12984.000 13024.000 13064.000 13104.000 13144.000 13184.000 13224.000 13264.000 13304.000 13344.000 13384.000 13432.000 13472.000 13512.000 13552.000 13600.000 13632.000 13672.000 13704.000 13744.000 13776.000 13816.000 13856.000 13888.000 13928.000 13968.000 14000.000 14040.000 14080.000 14120.000 14152.000 14192.000 14224.000 14248.000 14280.000 14312.000 14344.000 14376.000 14408.000 14440.000 14472.000 14504.000 14536.000 14568.000 14600.000 14624.000 14648.000 14672.000 14696.000 14720.000 14744.000 14768.000 14792.000 14816.000 14840.000 14864.000 14888.000 14912.000 14936.000 14952.000 14968.000 14984.000 15000.000 15016.000 15024.000 15040.000 15056.000 15072.000 15088.000 15104.000 15120.000 15136.000 15136.000 15144.000 15144.000 15152.000 15160.000 15160.000 15168.000 15176.000 15176.000 15184.000 15184.000 15192.000 15192.000 15184.000 15184.000 15176.000 15176.000 15168.000 15160.000 15160.000 15152.000 15144.000 15144.000 15136.000 15136.000 15120.000 15104.000 15088.000 15072.000 15056.000 15040.000 15032.000 15016.000 15000.000 14984.000 14968.000 14952.000 14936.000 14912.000 14888.000 14864.000 14840.000 14816.000 14792.000 14768.000 14744.000 14720.000 14696.000 14672.000 14648.000 14624.000 14600.000 14568.000 1.634 1.626 1.617 1.611 1.610 1.612 1.616 1.621 14280.000 14248.000 14224.000 14192.000 14152.000 14120.000 14080.000 14040.000 14000.000 13968.000 13928.000 13888.000 13856.000 13816.000 13776.000 13744.000 13704.000 13672.000 13632.000 13600.000 13560.000 13512.000 13472.000 13432.000 13392.000 13344.000 13304.000 13264.000 13224.000 13184.000 13144.000 13104.000 13064.000 13024.000 12984.000 12944.000 12904.000 12864.000 12816.000 12776.000 12728.000 12688.000 12648.000 12600.000 12560.000 12520.000 12480.000 12432.000 12392.000 12352.000 12312.000 12272.000 12232.000 12192.000 12152.000 12112.000 12072.000 12024.000 11984.000 11936.000 11896.000 11856.000 11808.000 11768.000 11728.000 11680.000 11640.000 11600.000 11552.000 11512.000 11472.000 11432.000 11392.000 2.158 2.154 11272.000 11232.000 11192.000 11152.000
11168.000 11208.000 11248.000 11288.000 11328.000 11368.000 11408.000 11448.000 11488.000 11528.000 11568.000 11616.000 11656.000 11696.000 11744.000 11784.000 11824.000 11872.000 11912.000 11960.000 12000.000 12048.000 12096.000 12136.000 12176.000 12216.000 12256.000 12296.000 12336.000 12376.000 12416.000 12456.000 12504.000 12544.000 12584.000 12624.000 12672.000 12712.000 12760.000 12800.000 12848.000 12888.000 12936.000 12976.000 13016.000 13048.000 13088.000 13128.000 13168.000 13208.000 13256.000 13296.000 13336.000 13376.000 13416.000 13456.000 13504.000 13544.000 13584.000 13632.000 13664.000 13704.000 13736.000 13776.000 13808.000 13848.000 13888.000 13920.000 13960.000 14000.000 14032.000 14072.000 14112.000 14152.000 14184.000 14224.000 14256.000 14280.000 14312.000 14344.000 14376.000 14408.000 14440.000 14472.000 14504.000 14536.000 14568.000 14600.000 14632.000 14664.000 14688.000 14712.000 14736.000 14760.000 14784.000 14808.000 14832.000 14856.000 14880.000 14904.000 14928.000 14952.000 14976.000 14992.000 15008.000 15016.000 15032.000 15048.000 15064.000 15080.000 15096.000 15112.000 15128.000 15136.000 15152.000 15168.000 15176.000 15176.000 15184.000 15192.000 15192.000 15200.000 15208.000 15208.000 15216.000 15224.000 15224.000 15232.000 15232.000 15224.000 15224.000 15216.000 15208.000 15208.000 15200.000 15192.000 15192.000 15184.000 15176.000 15176.000 15168.000 15152.000 15136.000 15128.000 15112.000 15096.000 15080.000 15064.000 15048.000 15032.000 15016.000 15008.000 14992.000 14976.000 14952.000 14928.000 14904.000 14880.000 14856.000 14832.000 14808.000 14784.000 14760.000 14736.000 14712.000 14688.000 14664.000 14632.000 1.655 1.625 1.615 1.606 1.604 1.602 1.599 1.602 1.605 1.607 1.620 1.628 14224.000 14184.000 14152.000 14112.000 14072.000 14032.000 14000.000 13960.000 13920.000 13888.000 13848.000 13808.000 13776.000 13736.000 13704.000 13664.000 13632.000 13584.000 13544.000 13504.000 13456.000 13416.000 13376.000 13336.000 13296.000 13256.000 13208.000 13168.000 13128.000 13088.000 13056.000 13016.000 12976.000 12936.000 12888.000 12848.000 12800.000 12760.000 12712.000 12672.000 12632.000 12584.000 12544.000 12504.000 12456.000 12416.000 12376.000 12336.000 12296.000 12256.000 12216.000 12176.000 12136.000 12096.000 12048.000 12008.000 11960.000 11912.000 11872.000 11824.000 11784.000 11744.000 11696.000 11656.000 11616.000 11568.000 11528.000 11488.000 11448.000 11408.000 2.158 2.154 11288.000 11248.000 11208.000 11168.000
11184.000 11224.000 11264.000 11304.000 11344.000 11384.000 11424.000 11464.000 11504.000 11544.000 11584.000 11632.000 11672.000 11712.000 11760.000 11800.000 11840.000 11888.000 11928.000 11976.000 12024.000 12064.000 12112.000 12152.000 12192.000 12240.000 12280.000 12320.000 12360.000 12400.000 12440.000 12488.000 12528.000 12568.000 12608.000 12656.000 12696.000 12744.000 12784.000 12824.000 12872.000 12920.000 12960.000 13000.000 13040.000 13080.000 13120.000 13160.000 13200.000 13240.000 13280.000 13320.000 13360.000 13408.000 13448.000 13488.000 13528.000 13576.000 13616.000 13656.000 13696.000 13728.000 13768.000 13808.000 13840.000 13880.000 13912.000 13952.000 13992.000 14024.000 14064.000 14104.000 14144.000 14184.000 14216.000 14256.000 14288.000 14320.000 14344.000 14376.000 14408.000 14440.000 14472.000 14504.000 14536.000 14568.000 14600.000 14632.000 14664.000 14696.000 14720.000 14744.000 14768.000 14792.000 14816.000 14840.000 14864.000 14888.000 14912.000 14936.000 14960.000 14984.000 15008.000 15024.000 15040.000 15056.000 15072.000 15088.000 15104.000 15120.000 15128.000 15144.000 15160.000 15176.000 15192.000 15208.000 15208.000 15216.000 15224.000 15224.000 15232.000 15240.000 15240.000 15248.000 15256.000 15256.000 15264.000 15264.000 15264.000 15264.000 15256.000 15256.000 15248.000 15240.000 15240.000 15232.000 15224.000 15224.000 15216.000 15208.000 15208.000 15192.000 15176.000 15160.000 15144.000 15128.000 15120.000 15104.000 15088.000 15072.000 15056.000 15040.000 15024.000 15008.000 14984.000 14960.000 14936.000 14912.000 14888.000 14864.000 14840.000 14816.000 14792.000 14768.000 14744.000 14720.000 14696.000 1.664 1.635 1.621 1.611 1.604 1.600 1.597 1.595 1.593 1.595 1.596 1.591 1.592 1.596 1.598 1.607 14144.000 14104.000 14064.000 14032.000 13992.000 13952.000 13912.000 13880.000 13840.000 13808.000 13768.000 13728.000 13696.000 13656.000 13616.000 13576.000 13528.000 13488.000 13448.000 13408.000 13360.000 13320.000 13280.000 13240.000 13200.000 13160.000 13120.000 13080.000 13040.000 13000.000 12960.000 12920.000 12872.000 12832.000 12784.000 12744.000 12696.000 12656.000 12608.000 12568.000 12528.000 12488.000 12440.000 12400.000 12360.000 12320.000 12280.000 12240.000 12192.000 12152.000 12112.000 12064.000 12024.000 11976.000 11928.000 11888.000 11840.000 11800.000 11760.000 11712.000 11672.000 11632.000 11584.000 11544.000 11504.000 11464.000 11424.000 2.158 2.154 11304.000 11264.000 11224.000 11184.000
11200.000 11240.000 11280.000 11320.000 11360.000 11400.000 11440.000 11480.000 11520.000 11560.000 11600.000 11648.000 11688.000 11728.000 11776.000 11816.000 11856.000 11904.000 11944.000 11992.000 12040.000 12080.000 12128.000 12168.000 12216.000 12256.000 12296.000 12336.000 12376.000 12424.000 12464.000 12512.000 12552.000 12592.000 12640.000 12680.000 12720.000 12768.000 12808.000 12856.000 12896.000 12944.000 12992.000 13024.000 13064.000 13104.000 13144.000 13184.000 13224.000 13272.000 13312.000 13352.000 13392.000 13432.000 13472.000 13520.000 13560.000 13600.000 13648.000 13688.000 13728.000 13760.000 13800.000 13832.000 13872.000 13912.000 13944.000 13984.000 14024.000 14056.000 14096.000 14136.000 14176.000 14216.000 14256.000 14288.000 14320.000 14352.000 14384.000 14416.000 14448.000 14472.000 14504.000 14536.000 14568.000 14608.000 14640.000 14672.000 14704.000 14728.000 14752.000 14776.000 14800.000 14824.000 14848.000 14872.000 14896.000 14928.000 14952.000 14976.000 15000.000 15024.000 15048.000 15064.000 15080.000 15096.000 15104.000 15120.000 15136.000 15152.000 15168.000 15184.000 15200.000 15216.000 15232.000 15240.000 15248.000 15256.000 15256.000 15264.000 15272.000 15272.000 15280.000 15288.000 15288.000 15296.000 15304.000 15304.000 15304.000 15304.000 15296.000 15288.000 15288.000 15280.000 15272.000 15272.000 15264.000 15256.000 15256.000 15248.000 15240.000 15232.000 15216.000 15200.000 15184.000 15168.000 15152.000 15136.000 15120.000 15104.000 15096.000 15080.000 15064.000 15048.000 15024.000 15000.000 14976.000 14952.000 14928.000 14896.000 14872.000 14848.000 14824.000 14800.000 14776.000 14752.000 14728.000 1.643 1.628 1.617 1.609 1.604 1.599 1.594 1.591 1.590 1.589 1.586 1.580 1.579 1.579 1.582 1.584 1.613 14136.000 14096.000 14056.000 14024.000 13984.000 13944.000 13912.000 13872.000 13832.000 13800.000 13760.000 13728.000 13688.000 13648.000 13600.000 13560.000 13520.000 13472.000 13432.000 13392.000 13352.000 13312.000 13272.000 13224.000 13184.000 13144.000 13104.000 13064.000 13032.000 12992.000 12944.000 12896.000 12856.000 12808.000 12768.000 12720.000 12680.000 12640.000 12592.000 12552.000 12512.000 12464.000 12424.000 12384.000 12336.000 12296.000 12256.000 12216.000 12176.000 12128.000 12080.000 12040.000 11992.000 11952.000 11904.000 11856.000 11816.000 11776.000 11728.000 11688.000 11648.000 11600.000 11560.000 11520.000 11480.000 11440.000 2.158 2.154 11320.000 11280.000 11240.000 11200.000
11216.000 11248.000 11288.000 11328.000 11368.000 11408.000 11456.000 11496.000 11536.000 11576.000 11616.000 11664.000 11704.000 11744.000 11792.000 11832.000 11872.000 11920.000 11968.000 12008.000 12056.000 12096.000 12144.000 12192.000 12232.000 12272.000 12312.000 12352.000 12400.000 12440.000 12480.000 12528.000 12568.000 12616.000 12656.000 12704.000 12744.000 12792.000 12840.000 12880.000 12928.000 12968.000 13016.000 13056.000 13096.000 13136.000 13176.000 13216.000 13256.000 13296.000 13336.000 13376.000 13424.000 13464.000 13504.000 13544.000 13592.000 13632.000 13672.000 13720.000 13752.000 13792.000 13832.000 13864.000 13904.000 13944.000 13976.000 14016.000 14056.000 14088.000 14128.000 14168.000 14208.000 14248.000 14288.000 14320.000 14352.000 14384.000 14416.000 14448.000 14480.000 14512.000 14544.000 14576.000 14608.000 14640.000 14672.000 14704.000 14736.000 14768.000 14792.000 14816.000 14840.000 14864.000 14888.000 14912.000 14936.000 14960.000 14984.000 15008.000 15032.000 15056.000 15080.000 15096.000 15112.000 15128.000 15144.000 15160.000 15176.000 15192.000 15208.000 15224.000 15232.000 15248.000 15264.000 15280.000 15288.000 15288.000 15296.000 15304.000 15304.000 15312.000 15320.000 15320.000 15328.000 15336.000 15336.000 15344.000 15344.000 15336.000 15336.000 15328.000 15320.000 15320.000 15312.000 15304.000 15304.000 15296.000 15288.000 15288.000 15280.000 15264.000 15248.000 15232.000 15224.000 15208.000 15192.000 15176.000 15160.000 15144.000 15128.000 15112.000 15096.000 15080.000 15056.000 15032.000 15008.000 14984.000 14960.000 14936.000 14912.000 14888.000 14864.000 14840.000 14816.000 14792.000 1.657 1.638 1.626 1.616 1.609 1.603 1.599 1.595 1.590 1.588 1.585 1.582 1.578 1.578 1.579 1.583 1.586 1.594 14168.000 14128.000 14088.000 14056.000 14016.000 13976.000 13944.000 13904.000 13864.000 13832.000 13792.000 13752.000 13720.000 13672.000 13632.000 13592.000 13544.000 13504.000 13464.000 13424.000 13376.000 13336.000 13296.000 13256.000 13216.000 13176.000 13136.000 13096.000 13056.000 13016.000 12968.000 12928.000 12880.000 12840.000 12792.000 12744.000 12704.000 12656.000 12616.000 12568.000 12528.000 12480.000 12440.000 12400.000 12352.000 12312.000 12272.000 12232.000 12192.000 12144.000 12096.000 12056.000 12008.000 11968.000 11920.000 11880.000 11832.000 11792.000 11744.000 11704.000 11664.000 11616.000 11576.000 11536.000 11496.000 11456.000 2.158 2.154 11328.000 11288.000 11248.000 11216.000
11224.000 11264.000 11304.000 11344.000 11384.000 11424.000 11464.000 11512.000 11552.000 11592.000 11632.000 11672.000 11720.000 11760.000 11808.000 11848.000 11896.000 11936.000 11984.000 12024.000 12072.000 12120.000 12160.000 12208.000 12248.000 12288.000 12328.000 12376.000 12416.000 12456.000 12504.000 12544.000 12592.000 12632.000 12680.000 12720.000 12768.000 12808.000 12856.000 12904.000 12952.000 12992.000 13040.000 13080.000 13120.000 13160.000 13200.000 13240.000 13280.000 13328.000 13368.000 13408.000 13448.000 13488.000 13536.000 13576.000 13616.000 13664.000 13704.000 13752.000 13784.000 13824.000 13856.000 13896.000 13936.000 13968.000 14008.000 14048.000 14088.000 14120.000 14160.000 14200.000 14240.000 14280.000 14320.000 14352.000 14384.000 14416.000 14448.000 14480.000 14512.000 14544.000 14576.000 14608.000 14640.000 14672.000 14704.000 14736.000 14768.000 14800.000 14824.000 14848.000 14872.000 14896.000 14920.000 14944.000 14968.000 15000.000 15024.000 15048.000 15072.000 15096.000 15120.000 15136.000 15152.000 15168.000 15184.000 15200.000 15208.000 15224.000 15240.000 15256.000 15272.000 15288.000 15304.000 15320.000 15320.000 15328.000 15336.000 15336.000 15344.000 15352.000 15352.000 15360.000 15368.000 15368.000 15376.000 15384.000 15384.000 15376.000 15368.000 15368.000 15360.000 15352.000 15352.000 15344.000 15336.000 15336.000 15328.000 15320.000 15320.000 15304.000 15288.000 15272.000 15256.000 15240.000 15224.000 15208.000 15200.000 15184.000 15168.000 15152.000 15136.000 15120.000 15096.000 15072.000 15048.000 15024.000 15000.000 14968.000 14944.000 14920.000 14896.000 14872.000 14848.000 1.691 1.650 1.637 1.626 1.617 1.609 1.604 1.600 1.596 1.591 1.588 1.585 1.582 1.580 1.582 1.585 1.590 1.593 1.600 14200.000 14160.000 14120.000 14088.000 14048.000 14008.000 13968.000 13936.000 13896.000 13856.000 13824.000 13784.000 13752.000 13704.000 13664.000 13616.000 13576.000 13536.000 13488.000 13448.000 13408.000 13368.000 13328.000 13288.000 13240.000 13200.000 13160.000 13120.000 13080.000 13040.000 12992.000 12952.000 12904.000 12856.000 12808.000 12768.000 12720.000 12680.000 12632.000 12592.000 12544.000 12504.000 12456.000 12416.000 12376.000 12328.000 12288.000 12248.000 12208.000 12160.000 12120.000 12072.000 12024.000 11984.000 11936.000 11896.000 11848.000 11808.000 11760.000 11720.000 11680.000 11632.000 11592.000 11552.000 11512.000 11464.000 2.158 2.154 11344.000 11304.000 11264.000 11224.000
11240.000 11280.000 11320.000 11360.000 11400.000 11440.000 11480.000 11520.000 11568.000 11608.000 11648.000 11688.000 11736.000 11776.000 11824.000 11864.000 11912.000 11952.000 12000.000 12040.000 12088.000 12136.000 12176.000 12224.000 12264.000 12304.000 12352.000 12392.000 12432.000 12480.000 12520.000 12560.000 12608.000 12648.000 12696.000 12736.000 12784.000 12832.000 12872.000 12920.000 12968.000 13016.000 13064.000 13104.000 13144.000 13184.000 13224.000 13272.000 13312.000 13352.000 13392.000 13440.000 13480.000 13520.000 13560.000 13608.000 13648.000 13696.000 13736.000 13776.000 13816.000 13856.000 13888.000 13928.000 13968.000 14000.000 14040.000 14080.000 14120.000 14152.000 14192.000 14232.000 14272.000 14312.000 14352.000 14384.000 14416.000 14448.000 14480.000 14512.000 14544.000 14576.000 14608.000 14640.000 14672.000 14704.000 14744.000 14776.000 14808.000 14840.000 14864.000 14888.000 14912.000 14936.000 14960.000 14984.000 15008.000 15032.000 15056.000 15080.000 15104.000 15128.000 15160.000 15176.000 15184.000 15200.000 15216.000 15232.000 15248.000 15264.000 15280.000 15296.000 15312.000 15328.000 15344.000 15360.000 15360.000 15368.000 15376.000 15376.000 15384.000 15384.000 15392.000 15400.000 15400.000 15408.000 15416.000 15416.000 15416.000 15416.000 15408.000 15400.000 15400.000 15392.000 15384.000 15384.000 15376.000 15376.000 15368.000 15360.000 15360.000 15344.000 15328.000 15312.000 15296.000 15280.000 15264.000 15248.000 15232.000 15216.000 15200.000 15192.000 15176.000 15160.000 15136.000 15104.000 15080.000 15056.000 15032.000 15008.000 14984.000 14960.000 14936.000 14912.000 14888.000 1.673 1.649 1.637 1.627 1.619 1.612 1.607 1.602 1.598 1.594 1.592 1.589 1.589 1.594 1.598 1.602 1.609 1.608 14272.000 14232.000 14192.000 14152.000 14120.000 14080.000 14040.000 14000.000 13968.000 13928.000 13888.000 13856.000 13816.000 13776.000 13736.000 13696.000 13648.000 13608.000 13560.000 13520.000 13480.000 13440.000 13392.000 13352.000 13312.000 13272.000 13224.000 13184.000 13144.000 13104.000 13064.000 13016.000 12968.000 12920.000 12880.000 12832.000 12784.000 12744.000 12696.000 12648.000 12608.000 12560.000 12520.000 12480.000 12432.000 12392.000 12352.000 12304.000 12264.000 12224.000 12184.000 12136.000 12088.000 12040.000 12000.000 11952.000 11912.000 11864.000 11824.000 11776.000 11736.000 11696.000 11648.000 11608.000 11568.000 11528.000 11480.000 2.158 2.154 11360.000 11320.000 11280.000 11240.000
11256.000 11296.000 11336.000 11376.000 11416.000 11456.000 11496.000 11536.000 11584.000 11624.000 11664.000 11704.000 11752.000 11792.000 11840.000 11880.000 11928.000 11968.000 12016.000 12056.000 12104.000 12152.000 12200.000 12240.000 12280.000 12328.000 12368.000 12408.000 12448.000 12496.000 12536.000 12584.000 12624.000 12672.000 12712.000 12760.000 12800.000 12848.000 12896.000 12944.000 12984.000 13032.000 13080.000 13120.000 13160.000 13208.000 13248.000 13288.000 13328.000 13376.000 13416.000 13456.000 13504.000 13544.000 13592.000 13632.000 13680.000 13720.000 13768.000 13808.000 13848.000 13888.000 13920.000 13960.000 14000.000 14032.000 14072.000 14112.000 14152.000 14184.000 14224.000 14264.000 14304.000 14344.000 14384.000 14424.000 14448.000 14480.000 14512.000 14544.000 14576.000 14608.000 14648.000 14680.000 14712.000 14744.000 14776.000 14808.000 14840.000 14872.000 14896.000 14920.000 14944.000 14968.000 14992.000 15016.000 15048.000 15072.000 15096.000 15120.000 15144.000 15168.000 15192.000 15208.000 15224.000 15240.000 15256.000 15272.000 15288.000 15304.000 15320.000 15336.000 15352.000 15368.000 15376.000 15392.000 15400.000 15408.000 15408.000 15416.000 15424.000 15424.000 15432.000 15440.000 15440.000 15448.000 15456.000 15456.000 15456.000 15456.000 15448.000 15440.000 15440.000 15432.000 15424.000 15424.000 15416.000 15408.000 15408.000 15400.000 15392.000 15376.000 15368.000 15352.000 15336.000 15320.000 15304.000 15288.000 15272.000 15256.000 15240.000 15224.000 15208.000 15192.000 15168.000 15144.000 15120.000 15096.000 15072.000 15048.000 15016.000 14992.000 14968.000 14944.000 14920.000 1.670 1.650 1.639 1.630 1.622 1.616 1.610 1.604 1.602 1.599 1.596 1.596 1.598 1.604 1.608 1.614 1.625 1.651 14304.000 14264.000 14224.000 14192.000 14152.000 14112.000 14072.000 14032.000 14000.000 13960.000 13920.000 13888.000 13848.000 13808.000 13768.000 13720.000 13680.000 13632.000 13592.000 13544.000 13504.000 13456.000 13416.000 13376.000 13328.000 13288.000 13248.000 13208.000 13168.000 13120.000 13080.000 13032.000 12984.000 12944.000 12896.000 12848.000 12808.000 12760.000 12712.000 12672.000 12624.000 12584.000 12536.000 12496.000 12448.000 12408.000 12368.000 12328.000 12280.000 12240.000 12200.000 12152.000 12104.000 12056.000 12016.000 11968.000 11928.000 11880.000 11840.000 11792.000 11752.000 11704.000 11664.000 11624.000 11584.000 11536.000 11496.000 2.158 2.154 11376.000 11336.000 11296.000 11256.000
11272.000 11312.000 11352.000 11392.000 11432.000 11472.000 11512.000 11552.000 11600.000 11640.000 11680.000 11720.000 11768.000 11808.000 11856.000 11896.000 11944.000 11984.000 12032.000 12080.000 12120.000 12168.000 12216.000 12256.000 12304.000 12344.000 12384.000 12424.000 12472.000 12512.000 12560.000 12600.000 12640.000 12688.000 12736.000 12776.000 12824.000 12872.000 12912.000 12960.000 13008.000 13056.000 13104.000 13144.000 13184.000 13224.000 13264.000 13312.000 13352.000 13392.000 13440.000 13480.000 13528.000 13568.000 13608.000 13656.000 13704.000 13744.000 13792.000 13840.000 13872.000 13912.000 13952.000 13992.000 14032.000 14064.000 14104.000 14144.000 14184.000 14224.000 14256.000 14296.000 14336.000 14376.000 14416.000 14456.000 14488.000 14520.000 14552.000 14584.000 14616.000 14648.000 14680.000 14712.000 14744.000 14776.000 14808.000 14848.000 14880.000 14912.000 14936.000 14960.000 14984.000 15008.000 15032.000 15056.000 15080.000 15104.000 15128.000 15152.000 15184.000 15208.000 15232.000 15248.000 15264.000 15280.000 15296.000 15312.000 15328.000 15336.000 15352.000 15368.000 15384.000 15400.000 15416.000 15432.000 15440.000 15440.000 15448.000 15456.000 15456.000 15464.000 15472.000 15472.000 15480.000 15488.000 15488.000 15496.000 15496.000 15488.000 15488.000 15480.000 15472.000 15472.000 15464.000 15456.000 15456.000 15448.000 15440.000 15440.000 15432.000 15416.000 15400.000 15384.000 15368.000 15352.000 15336.000 15328.000 15312.000 15296.000 15280.000 15264.000 15248.000 15232.000 15208.000 15184.000 15152.000 15128.000 15104.000 15080.000 15056.000 15032.000 15008.000 14984.000 14960.000 1.669 1.652 1.642 1.633 1.626 1.620 1.613 1.609 1.606 1.604 1.603 1.603 1.604 1.608 1.612 1.620 1.638 14376.000 14336.000 14296.000 14256.000 14224.000 14184.000 14144.000 14104.000 14064.000 14032.000 13992.000 13952.000 13912.000 13872.000 13840.000 13792.000 13744.000 13704.000 13656.000 13616.000 13568.000 13528.000 13480.000 13440.000 13392.000 13352.000 13312.000 13264.000 13224.000 13184.000 13144.000 13104.000 13056.000 13008.000 12960.000 12912.000 12872.000 12824.000 12776.000 12736.000 12688.000 12648.000 12600.000 12560.000 12512.000 12472.000 12424.000 12384.000 12344.000 12304.000 12256.000 12216.000 12168.000 12120.000 12080.000 12032.000 11984.000 11944.000 11896.000 11856.000 11808.000 11768.000 11720.000 11680.000 11640.000 11600.000 11552.000 11512.000 2.158 2.154 11392.000 11352.000 11312.000 11272.000
11288.000 11328.000 11368.000 11408.000 11448.000 11488.000 11528.000 11568.000 11616.000 11656.000 11696.000 11736.000 11784.000 11824.000 11872.000 11912.000 11960.000 12000.000 12048.000 12096.000 12136.000 12184.000 12232.000 12272.000 12320.000 12360.000 12400.000 12448.000 12488.000 12528.000 12576.000 12616.000 12664.000 12704.000 12752.000 12800.000 12840.000 12888.000 12936.000 12984.000 13024.000 13072.000 13120.000 13160.000 13208.000 13248.000 13288.000 13328.000 13376.000 13416.000 13456.000 13504.000 13544.000 13592.000 13632.000 13680.000 13720.000 13768.000 13816.000 13856.000 13896.000 13936.000 13976.000 14016.000 14056.000 14088.000 14128.000 14168.000 14208.000 14248.000 14288.000 14328.000 14368.000 14408.000 14448.000 14488.000 14520.000 14552.000 14584.000 14616.000 14648.000 14680.000 14712.000 14744.000 14776.000 14816.000 14848.000 14880.000 14912.000 14944.000 14968.000 14992.000 15016.000 15040.000 15064.000 15096.000 15120.000 15144.000 15168.000 15192.000 15216.000 15240.000 15272.000 15288.000 15304.000 15312.000 15328.000 15344.000 15360.000 15376.000 15392.000 15408.000 15424.000 15440.000 15456.000 15472.000 15480.000 15480.000 15488.000 15496.000 15496.000 15504.000 15512.000 15512.000 15520.000 15528.000 15528.000 15536.000 15536.000 15528.000 15528.000 15520.000 15512.000 15512.000 15504.000 15496.000 15496.000 15488.000 15480.000 15480.000 15472.000 15456.000 15440.000 15424.000 15408.000 15392.000 15376.000 15360.000 15344.000 15328.000 15312.000 15304.000 15288.000 15272.000 15240.000 15216.000 15192.000 15168.000 15144.000 15120.000 15096.000 15064.000 15040.000 15016.000 14992.000 1.669 1.655 1.645 1.637 1.630 1.623 1.616 1.613 1.611 1.610 1.609 1.608 1.609 1.611 1.615 1.624 14448.000 14408.000 14368.000 14328.000 14288.000 14248.000 14208.000 14168.000 14128.000 14096.000 14056.000 14016.000 13976.000 13936.000 13896.000 13856.000 13816.000 13768.000 13720.000 13680.000 13632.000 13592.000 13544.000 13504.000 13456.000 13416.000 13376.000 13328.000 13288.000 13248.000 13208.000 13160.000 13120.000 13072.000 13024.000 12984.000 12936.000 12888.000 12840.000 12800.000 12752.000 12704.000 12664.000 12616.000 12576.000 12528.000 12488.000 12448.000 12400.000 12360.000 12320.000 12280.000 12232.000 12184.000 12136.000 12096.000 12048.000 12000.000 11960.000 11912.000 11872.000 11824.000 11784.000 11736.000 11696.000 11656.000 11616.000 11568.000 11528.000 2.158 2.154 11408.000 11368.000 11328.000 11288.000
11304.000 11344.000 11384.000 11424.000 11464.000 11504.000 11544.000 11584.000 11624.000 11672.000 11712.000 11752.000 11800.000 11840.000 11888.000 11928.000 11976.000 12016.000 12064.000 12112.000 12160.000 12200.000 12248.000 12296.000 12336.000 12376.000 12416.000 12464.000 12504.000 12552.000 12592.000 12640.000 12680.000 12728.000 12768.000 12816.000 12864.000 12904.000 12952.000 13000.000 13048.000 13096.000 13144.000 13184.000 13224.000 13264.000 13312.000 13352.000 13392.000 13440.000 13480.000 13520.000 13568.000 13608.000 13656.000 13696.000 13744.000 13792.000 13832.000 13880.000 13920.000 13960.000 14000.000 14040.000 14072.000 14112.000 14152.000 14192.000 14232.000 14272.000 14312.000 14360.000 14400.000 14440.000 14480.000 14520.000 14552.000 14584.000 14616.000 14648.000 14680.000 14712.000 14752.000 14784.000 14816.000 14848.000 14880.000 14912.000 14952.000 14984.000 15008.000 15032.000 15056.000 15080.000 15104.000 15128.000 15152.000 15176.000 15208.000 15232.000 15256.000 15280.000 15304.000 15320.000 15336.000 15352.000 15368.000 15384.000 15400.000 15416.000 15432.000 15448.000 15464.000 15480.000 15496.000 15512.000 15512.000 15520.000 15528.000 15528.000 15536.000 15544.000 15544.000 15552.000 15560.000 15560.000 15568.000 15576.000 15576.000 15568.000 15560.000 15560.000 15552.000 15544.000 15544.000 15536.000 15528.000 15528.000 15520.000 15512.000 15512.000 15496.000 15480.000 15464.000 15448.000 15432.000 15416.000 15400.000 15384.000 15368.000 15352.000 15336.000 15320.000 15304.000 15280.000 15256.000 15232.000 15208.000 15176.000 15152.000 15128.000 15104.000 15080.000 15056.000 15032.000 1.670 1.657 1.648 1.641 1.634 1.616 1.617 1.615 1.617 1.616 1.614 1.613 1.614 1.616 1.620 1.628 14480.000 14440.000 14400.000 14360.000 14312.000 14272.000 14232.000 14192.000 14152.000 14112.000 14072.000 14040.000 14000.000 13960.000 13920.000 13880.000 13832.000 13792.000 13744.000 13696.000 13656.000 13608.000 13568.000 13520.000 13480.000 13440.000 13392.000 13352.000 13312.000 13264.000 13224.000 13184.000 13144.000 13096.000 13048.000 13000.000 12952.000 12904.000 12864.000 12816.000 12768.000 12728.000 12680.000 12640.000 12592.000 12552.000 12504.000 12464.000 12424.000 12376.000 12336.000 12296.000 12248.000 12200.000 12160.000 12112.000 12064.000 12016.000 11976.000 11928.000 11888.000 11840.000 11800.000 11752.000 11712.000 11672.000 11632.000 11584.000 11544.000 2.158 2.154 11424.000 11384.000 11344.000 11304.000
11312.000 11352.000 11392.000 11440.000 11480.000 11520.000 11560.000 11600.000 11640.000 11688.000 11728.000 11768.000 11816.000 11856.000 11904.000 11944.000 11992.000 12040.000 12080.000 12128.000 12176.000 12216.000 12264.000 12312.000 12352.000 12392.000 12440.000 12480.000 12520.000 12568.000 12608.000 12656.000 12696.000 12744.000 12792.000 12832.000 12880.000 12928.000 12976.000 13016.000 13064.000 13112.000 13160.000 13200.000 13248.000 13288.000 13328.000 13368.000 13416.000 13456.000 13504.000 13544.000 13592.000 13632.000 13680.000 13720.000 13768.000 13808.000 13856.000 13904.000 13944.000 13984.000 14024.000 14056.000 14096.000 14136.000 14176.000 14216.000 14256.000 14296.000 14336.000 14376.000 14424.000 14464.000 14504.000 14544.000 14576.000 14608.000 14640.000 14672.000 14712.000 14744.000 14776.000 14808.000 14848.000 14880.000 14912.000 14952.000 14984.000 15016.000 15040.000 15064.000 15088.000 15112.000 15144.000 15168.000 15192.000 15216.000 15240.000 15264.000 15296.000 15320.000 15344.000 15360.000 15376.000 15392.000 15408.000 15424.000 15440.000 15456.000 15472.000 15488.000 15504.000 15520.000 15536.000 15552.000 15552.000 15560.000 15568.000 15568.000 15576.000 15584.000 15584.000 15592.000 15600.000 15600.000 15608.000 15616.000 15616.000 15608.000 15600.000 15600.000 15592.000 15584.000 15584.000 15576.000 15568.000 15568.000 15560.000 15552.000 15552.000 15536.000 15520.000 15504.000 15488.000 15472.000 15456.000 15440.000 15424.000 15408.000 15392.000 15376.000 15360.000 15344.000 15320.000 15296.000 15264.000 15240.000 15216.000 15192.000 15168.000 15144.000 15112.000 15088.000 1.706 1.673 1.660 1.651 1.644 1.637 1.620 1.633 1.625 1.622 1.620 1.617 1.617 1.619 1.622 1.627 1.640 14504.000 14464.000 14424.000 14384.000 14336.000 14296.000 14256.000 14216.000 14176.000 14136.000 14096.000 14056.000 14024.000 13984.000 13944.000 13904.000 13856.000 13808.000 13768.000 13720.000 13680.000 13632.000 13592.000 13544.000 13504.000 13456.000 13416.000 13368.000 13328.000 13288.000 13248.000 13200.000 13160.000 13112.000 13064.000 13016.000 12976.000 12928.000 12880.000 12832.000 12792.000 12744.000 12704.000 12656.000 12608.000 12568.000 12528.000 12480.000 12440.000 12392.000 12352.000 12312.000 12264.000 12216.000 12176.000 12128.000 12080.000 12040.000 11992.000 11944.000 11904.000 11856.000 11816.000 11768.000 11728.000 11688.000 11640.000 11600.000 11560.000 2.158 2.154 11440.000 11392.000 11352.000 11312.000
11328.000 11368.000 11408.000 11448.000 11496.000 11536.000 11576.000 11616.000 11656.000 11704.000 11744.000 11784.000 11832.000 11872.000 11920.000 11960.000 12008.000 12056.000 12096.000 12144.000 12192.000 12240.000 12280.000 12328.000 12368.000 12416.000 12456.000 12496.000 12544.000 12584.000 12632.000 12672.000 12720.000 12760.000 12808.000 12856.000 12896.000 12944.000 12992.000 13040.000 13088.000 13136.000 13184.000 13224.000 13264.000 13304.000 13352.000 13392.000 13432.000 13480.000 13520.000 13568.000 13608.000 13656.000 13696.000 13744.000 13792.000 13832.000 13880.000 13928.000 13968.000 14008.000 14040.000 14080.000 14120.000 14160.000 14200.000 14240.000 14280.000 14320.000 14360.000 14400.000 14448.000 14488.000 14528.000 14568.000 14600.000 14632.000 14664.000 14696.000 14736.000 14768.000 14800.000 14840.000 14872.000 14904.000 14944.000 14976.000 15008.000 15040.000 15072.000 15096.000 15120.000 15144.000 15168.000 15200.000 15224.000 15248.000 15272.000 15304.000 15328.000 15352.000 15384.000 15400.000 15416.000 15432.000 15448.000 15464.000 15480.000 15496.000 15512.000 15528.000 15544.000 15560.000 15576.000 15584.000 15592.000 15600.000 15600.000 15608.000 15616.000 15616.000 15624.000 15632.000 15632.000 15640.000 15648.000 15648.000 15656.000 15648.000 15640.000 15632.000 15632.000 15624.000 15616.000 15616.000 15608.000 15600.000 15600.000 15592.000 15584.000 15576.000 15560.000 15544.000 15528.000 15512.000 15496.000 15480.000 15464.000 15448.000 15432.000 15416.000 15400.000 15384.000 15352.000 15328.000 15304.000 15272.000 15248.000 15224.000 15200.000 15168.000 15144.000 15120.000 15096.000 1.677 1.664 1.655 1.647 1.641 1.623 1.641 1.630 1.626 1.623 1.622 1.622 1.625 1.637 1.662 14568.000 14528.000 14488.000 14448.000 14408.000 14360.000 14320.000 14280.000 14240.000 14200.000 14160.000 14120.000 14080.000 14040.000 14008.000 13968.000 13928.000 13880.000 13832.000 13792.000 13744.000 13696.000 13656.000 13608.000 13568.000 13520.000 13480.000 13432.000 13392.000 13352.000 13304.000 13264.000 13224.000 13184.000 13136.000 13088.000 13040.000 12992.000 12944.000 12904.000 12856.000 12808.000 12760.000 12720.000 12672.000 12632.000 12584.000 12544.000 12496.000 12456.000 12416.000 12368.000 12328.000 12288.000 12240.000 12192.000 12144.000 12096.000 12056.000 12008.000 11960.000 11920.000 11872.000 11832.000 11792.000 11744.000 11704.000 11656.000 11616.000 11576.000 2.158 2.154 11448.000 11408.000 11368.000 11328.000
11344.000 11384.000 11424.000 11464.000 11504.000 11552.000 11592.000 11632.000 11672.000 11720.000 11760.000 11800.000 11848.000 11888.000 11936.000 11984.000 12024.000 12072.000 12112.000 12160.000 12208.000 12256.000 12304.000 12344.000 12392.000 12432.000 12472.000 12520.000 12560.000 12608.000 12648.000 12696.000 12736.000 12784.000 12824.000 12872.000 12920.000 12968.000 13008.000 13056.000 13104.000 13152.000 13200.000 13240.000 13288.000 13328.000 13368.000 13416.000 13456.000 13496.000 13544.000 13584.000 13632.000 13672.000 13720.000 13768.000 13808.000 13856.000 13904.000 13952.000 13992.000 14024.000 14064.000 14104.000 14144.000 14184.000 14224.000 14264.000 14304.000 14344.000 14384.000 14432.000 14472.000 14512.000 14552.000 14592.000 14624.000 14656.000 14688.000 14728.000 14760.000 14792.000 14824.000 14864.000 14896.000 14928.000 14968.000 15000.000 15040.000 15072.000 15096.000 15120.000 15144.000 15168.000 15200.000 15224.000 15248.000 15280.000 15304.000 15328.000 15352.000 15384.000 15408.000 15424.000 15440.000 15456.000 15472.000 15488.000 15504.000 15520.000 15536.000 15560.000 15576.000 15592.000 15608.000 15624.000 15624.000 15632.000 15640.000 15640.000 15648.000 15656.000 15664.000 15664.000 15672.000 15680.000 15680.000 15688.000 15688.000 15680.000 15680.000 15672.000 15664.000 15664.000 15656.000 15648.000 15640.000 15640.000 15632.000 15624.000 15624.000 15608.000 15592.000 15576.000 15560.000 15536.000 15520.000 15504.000 15488.000 15472.000 15456.000 15440.000 15424.000 15408.000 15384.000 15352.000 15328.000 15304.000 15280.000 15248.000 15224.000 15200.000 15168.000 15144.000 15120.000 1.682 1.670 1.660 1.651 1.646 1.630 1.630 1.633 1.629 1.626 1.626 1.626 1.630 1.643 1.669 14592.000 14552.000 14512.000 14472.000 14432.000 14384.000 14344.000 14304.000 14264.000 14224.000 14184.000 14144.000 14104.000 14064.000 14024.000 13992.000 13952.000 13904.000 13856.000 13808.000 13768.000 13720.000 13672.000 13632.000 13584.000 13544.000 13496.000 13456.000 13416.000 13368.000 13328.000 13288.000 13240.000 13200.000 13152.000 13104.000 13056.000 13016.000 12968.000 12920.000 12872.000 12824.000 12784.000 12736.000 12696.000 12648.000 12608.000 12560.000 12520.000 12472.000 12432.000 12392.000 12344.000 12304.000 12256.000 12208.000 12160.000 12112.000 12072.000 12024.000 11984.000 11936.000 11888.000 11848.000 11808.000 11760.000 11720.000 11672.000 11632.000 11592.000 2.158 2.154 11464.000 11424.000 11384.000 11344.000
11360.000 11400.000 11440.000 11480.000 11520.000 11568.000 11608.000 11648.000 11688.000 11736.000 11776.000 11824.000 11864.000 11904.000 11952.000 12000.000 12040.000 12088.000 12136.000 12176.000 12224.000 12272.000 12320.000 12360.000 12408.000 12448.000 12488.000 12536.000 12576.000 12624.000 12664.000 12712.000 12760.000 12800.000 12848.000 12896.000 12936.000 12984.000 13032.000 13080.000 13128.000 13176.000 13224.000 13264.000 13304.000 13352.000 13392.000 13432.000 13480.000 13520.000 13568.000 13608.000 13656.000 13696.000 13744.000 13784.000 13832.000 13880.000 13928.000 13968.000 14008.000 14048.000 14088.000 14128.000 14168.000 14208.000 14248.000 14288.000 14328.000 14368.000 14408.000 14456.000 14496.000 14536.000 14576.000 14616.000 14648.000 14680.000 14720.000 14752.000 14784.000 14816.000 14856.000 14888.000 14920.000 14960.000 14992.000 15024.000 15064.000 15096.000 15120.000 15144.000 15176.000 15200.000 15224.000 15248.000 15280.000 15304.000 15328.000 15360.000 15384.000 15408.000 15440.000 15456.000 15472.000 15488.000 15504.000 15520.000 15536.000 15552.000 15568.000 15584.000 15600.000 15616.000 15632.000 15648.000 15656.000 15664.000 15664.000 15672.000 15680.000 15680.000 15688.000 15696.000 15696.000 15704.000 15712.000 15720.000 15720.000 15712.000 15704.000 15696.000 15696.000 15688.000 15680.000 15680.000 15672.000 15664.000 15664.000 15656.000 15648.000 15632.000 15616.000 15600.000 15584.000 15568.000 15552.000 15536.000 15520.000 15504.000 15488.000 15472.000 15456.000 15440.000 15408.000 15384.000 15360.000 15328.000 15304.000 15280.000 15248.000 15224.000 15200.000 15176.000 15144.000 1.686 1.674 1.663 1.655 1.649 1.646 1.638 1.638 1.633 1.631 1.630 1.631 1.635 1.647 1.669 1.675 14576.000 14536.000 14496.000 14456.000 14408.000 14368.000 14328.000 14288.000 14248.000 14208.000 14168.000 14128.000 14088.000 14048.000 14008.000 13968.000 13928.000 13880.000 13832.000 13784.000 13744.000 13696.000 13656.000 13608.000 13568.000 13520.000 13480.000 13432.000 13392.000 13352.000 13304.000 13264.000 13224.000 13176.000 13128.000 13080.000 13032.000 12984.000 12936.000 12896.000 12848.000 12800.000 12760.000 12712.000 12664.000 12624.000 12576.000 12536.000 12496.000 12448.000 12408.000 12368.000 12320.000 12272.000 12224.000 12176.000 12136.000 12088.000 12040.000 12000.000 11952.000 11912.000 11864.000 11824.000 11776.000 11736.000 11688.000 11648.000 11608.000 2.158 2.154 11480.000 11440.000 11400.000 11360.000
11376.000 11416.000 11456.000 11496.000 11536.000 11584.000 11624.000 11664.000 11704.000 11752.000 11792.000 11840.000 11880.000 11928.000 11968.000 12016.000 12056.000 12104.000 12152.000 12192.000 12240.000 12288.000 12336.000 12384.000 12424.000 12464.000 12512.000 12552.000 12600.000 12640.000 12688.000 12728.000 12776.000 12824.000 12864.000 12912.000 12960.000 13008.000 13048.000 13096.000 13144.000 13192.000 13240.000 13288.000 13328.000 13368.000 13408.000 13456.000 13496.000 13544.000 13584.000 13632.000 13672.000 13720.000 13768.000 13808.000 13856.000 13904.000 13944.000 13992.000 14032.000 14072.000 14112.000 14152.000 14192.000 14232.000 14272.000 14312.000 14352.000 14392.000 14432.000 14480.000 14520.000 14560.000 14600.000 14640.000 14672.000 14704.000 14744.000 14776.000 14808.000 14848.000 14880.000 14912.000 14952.000 14984.000 15016.000 15056.000 15088.000 15120.000 15144.000 15176.000 15200.000 15224.000 15248.000 15280.000 15304.000 15328.000 15360.000 15384.000 15408.000 15440.000 15464.000 15480.000 15496.000 15512.000 15528.000 15544.000 15560.000 15576.000 15600.000 15616.000 15632.000 15648.000 15664.000 15680.000 15680.000 15688.000 15696.000 15704.000 15704.000 15712.000 15720.000 15720.000 15728.000 15736.000 15736.000 15744.000 15744.000 15736.000 15736.000 15728.000 15720.000 15720.000 15712.000 15704.000 15704.000 15696.000 15688.000 15680.000 15680.000 15664.000 15648.000 15632.000 15616.000 15600.000 15576.000 15560.000 15544.000 15528.000 15512.000 15496.000 15480.000 15464.000 15440.000 15408.000 15384.000 15360.000 15328.000 15304.000 15280.000 15248.000 15224.000 15200.000 15176.000 1.688 1.677 1.667 1.658 1.653 1.651 1.647 1.643 1.638 1.637 1.636 1.638 1.643 1.661 1.670 1.672 14600.000 14560.000 14520.000 14480.000 14432.000 14392.000 14352.000 14312.000 14272.000 14232.000 14192.000 14152.000 14112.000 14072.000 14032.000 13992.000 13944.000 13904.000 13856.000 13808.000 13768.000 13720.000 13672.000 13632.000 13584.000 13544.000 13496.000 13456.000 13416.000 13368.000 13328.000 13288.000 13240.000 13192.000 13144.000 13096.000 13048.000 13008.000 12960.000 12912.000 12864.000 12824.000 12776.000 12728.000 12688.000 12640.000 12600.000 12552.000 12512.000 12464.000 12424.000 12384.000 12336.000 12288.000 12240.000 12200.000 12152.000 12104.000 12056.000 12016.000 11968.000 11928.000 11880.000 11840.000 11792.000 11752.000 11704.000 11664.000 11624.000 2.158 2.154 11496.000 11456.000 11416.000 11376.000
11384.000 11432.000 11472.000 11512.000 11552.000 11592.000 11640.000 11680.000 11720.000 11768.000 11808.000 11856.000 11896.000 11944.000 11984.000 12032.000 12072.000 12120.000 12168.000 12216.000 12256.000 12304.000 12352.000 12400.000 12440.000 12488.000 12528.000 12568.000 12616.000 12656.000 12704.000 12752.000 12792.000 12840.000 12888.000 12928.000 12976.000 13024.000 13072.000 13120.000 13168.000 13216.000 13264.000 13304.000 13344.000 13392.000 13432.000 13480.000 13520.000 13560.000 13608.000 13648.000 13696.000 13744.000 13784.000 13832.000 13880.000 13920.000 13968.000 14016.000 14056.000 14096.000 14136.000 14176.000 14216.000 14256.000 14296.000 14336.000 14376.000 14416.000 14456.000 14504.000 14544.000 14584.000 14624.000 14664.000 14696.000 14736.000 14768.000 14800.000 14832.000 14872.000 14904.000 14936.000 14976.000 15008.000 15048.000 15080.000 15112.000 15152.000 15176.000 15200.000 15224.000 15256.000 15280.000 15304.000 15328.000 15360.000 15384.000 15408.000 15440.000 15464.000 15496.000 15512.000 15528.000 15544.000 15560.000 15576.000 15592.000 15608.000 15624.000 15640.000 15656.000 15672.000 15688.000 15704.000 15712.000 15720.000 15720.000 15728.000 15736.000 15744.000 15744.000 15752.000 15760.000 15760.000 15768.000 15776.000 15776.000 15768.000 15760.000 15760.000 15752.000 15744.000 15744.000 15736.000 15728.000 15720.000 15720.000 15712.000 15704.000 15688.000 15672.000 15656.000 15640.000 15624.000 15608.000 15592.000 15576.000 15560.000 15544.000 15528.000 15512.000 15496.000 15464.000 15440.000 15408.000 15384.000 15360.000 15328.000 15304.000 15280.000 15256.000 15224.000 1.714 1.688 1.678 1.669 1.661 1.657 1.654 1.654 1.648 1.646 1.643 1.644 1.646 1.652 1.673 1.682 1.676 14624.000 14584.000 14544.000 14504.000 14456.000 14416.000 14376.000 14336.000 14296.000 14256.000 14216.000 14176.000 14136.000 14096.000 14056.000 14016.000 13968.000 13920.000 13880.000 13832.000 13784.000 13744.000 13696.000 13648.000 13608.000 13560.000 13520.000 13480.000 13432.000 13392.000 13344.000 13304.000 13264.000 13216.000 13168.000 13120.000 13072.000 13024.000 12976.000 12928.000 12888.000 12840.000 12792.000 12752.000 12704.000 12656.000 12616.000 12576.000 12528.000 12488.000 12440.000 12400.000 12352.000 12304.000 12264.000 12216.000 12168.000 12120.000 12072.000 12032.000 11984.000 11944.000 11896.000 11856.000 11808.000 11768.000 11720.000 11680.000 11640.000 2.158 2.154 11512.000 11472.000 11432.000 11384.000
