6.508 6.508 6.508 6.508 6.508 6.508 6.508 6.508 6.508 6.508 6.508 6.508 6.508 6.508 6.508 6.508 6.508 6.508 6.508 6.508 6.508 6.508 6.508 6.508 6.508 6.508 6.508 6.508 6.508 6.508 6.508 6.508 6.508 6.508 6.508 6.508 6.508 6.508 6.508 6.508 6.508 6.508 6.508 6.508 6.508 6.508 6.508 6.508 6.508 6.508 6.508 6.508 6.508 6.508 6.508 6.508 6.508 6.508 6.508 6.508 6.508 6.508 6.508 6.508 6.508 6.508 6.508 6.508 6.508 6.508 6.508 6.508 6.508 6.508 6.508 6.508 6.508 6.508 6.508 6.508 6.508 6.508 6.508 6.508 6.508 6.508 6.508 6.508 6.508 6.508 6.508 6.508 6.508 6.508 6.508 6.508 6.508 6.508 6.508 6.508 6.508 6.508 6.508 6.508 6.508 6.508 6.508 6.508 6.508 6.508 6.508 6.508 6.508 6.508 6.508 6.508 6.508 6.508 6.508 6.508 6.508 6.508 6.508 6.508 6.508 6.508 6.508 6.508 6.508 6.508 6.508 6.508 6.508 6.508 6.508 6.508 6.508 6.508 6.508 6.508 6.508 6.508 6.508 6.508 6.508 6.508 6.508 6.508 6.508 6.508 6.508 6.508 6.508 6.508 6.508 6.508 6.508 6.508 6.508 6.508 6.508 6.508 6.508 6.508 6.508 6.508 6.508 6.508 6.508 6.508 6.508 6.508 6.508 6.508 6.508 6.508 6.508 6.508 6.508 6.508 6.508 6.508 6.508 6.508 6.508 6.508 6.508 6.508 6.508 6.508 6.508 6.508 6.508 6.508 6.508 6.508 6.508 6.508 6.508 6.508 6.508 6.508 6.508 6.508 6.508 6.508 6.508 6.508 6.508 6.508 6.508 6.508 6.508 6.508 6.508 6.508 6.508 6.508 6.508 6.508 6.508 6.508 6.508 6.508 6.508 6.508 6.508 6.508 6.508 6.508 6.508 6.508 6.508 6.508 6.508 6.508 6.508 6.508 6.508 6.508 6.508 6.508 6.508 6.508 6.508 6.508 6.508 6.461 6.406 6.352 6.301 6.250 6.199 6.148 6.102 6.055
6.508 6.508 6.508 6.508 6.508 6.508 6.508 6.508 6.508 6.508 6.508 6.508 6.508 6.508 6.508 6.508 6.508 6.508 6.508 6.508 6.508 6.508 6.508 6.508 6.508 6.508 6.508 6.508 6.508 6.508 6.508 6.508 6.508 6.508 6.508 6.508 6.508 6.508 6.508 6.508 6.508 6.508 6.508 6.508 6.508 6.508 6.508 6.508 6.508 6.508 6.508 6.508 6.508 6.508 6.508 6.508 6.508 6.508 6.508 6.508 6.508 6.508 6.508 6.508 6.508 6.508 6.508 6.508 6.508 6.508 6.508 6.508 6.508 6.508 6.508 6.508 6.508 6.508 6.508 6.508 6.508 6.508 6.508 6.508 6.508 6.508 6.508 6.508 6.508 6.508 6.508 6.508 6.508 6.508 6.508 6.508 6.508 6.508 6.508 6.508 6.508 6.508 6.508 6.508 6.508 6.508 6.508 6.508 6.508 6.508 6.508 6.508 6.508 6.508 6.508 6.508 6.508 6.508 6.508 6.508 6.508 6.508 6.508 6.508 6.508 6.508 6.508 6.508 6.508 6.508 6.508 6.508 6.508 6.508 6.508 6.508 6.508 6.508 6.508 6.508 6.508 6.508 6.508 6.508 6.508 6.508 6.508 6.508 6.508 6.508 6.508 6.508 6.508 6.508 6.508 6.508 6.508 6.508 6.508 6.508 6.508 6.508 6.508 6.508 6.508 6.508 6.508 6.508 6.508 6.508 6.508 6.508 6.508 6.508 6.508 6.508 6.508 6.508 6.508 6.508 6.508 6.508 6.508 6.508 6.508 6.508 6.508 6.508 6.508 6.508 6.508 6.508 6.508 6.508 6.508 6.508 6.508 6.508 6.508 6.508 6.508 6.508 6.508 6.508 6.508 6.508 6.508 6.508 6.508 6.508 6.508 6.508 6.508 6.508 6.508 6.508 6.508 6.508 6.508 6.508 6.508 6.508 6.508 6.508 6.508 6.508 6.508 6.508 6.508 6.508 6.508 6.508 6.508 6.508 6.508 6.508 6.508 6.508 6.508 6.508 6.508 6.508 6.508 6.508 6.508 6.508 6.508 6.461 6.406 6.352 6.301 6.250 6.199 6.148 6.102 6.055
6.508 6.508 6.508 6.508 6.508 6.508 6.508 6.508 6.508 6.508 6.508 6.508 6.508 6.508 6.508 6.508 6.508 6.508 6.508 6.508 6.508 6.508 6.508 6.508 6.508 6.508 6.508 6.508 6.508 6.508 6.508 6.508 6.508 6.508 6.508 6.508 6.508 6.508 6.508 6.508 6.508 6.508 6.508 6.508 6.508 6.508 6.508 6.508 6.508 6.508 6.508 6.508 6.508 6.508 6.508 6.508 6.508 6.508 6.508 6.508 6.508 6.508 6.508 6.508 6.508 6.508 6.508 6.508 6.508 6.508 6.508 6.508 6.508 6.508 6.508 6.508 6.508 6.508 6.508 6.508 6.508 6.508 6.508 6.508 6.508 6.508 6.508 6.508 6.508 6.508 6.508 6.508 6.508 6.508 6.508 6.508 6.508 6.508 6.508 6.508 6.508 6.508 6.508 6.508 6.508 6.508 6.508 6.508 6.508 6.508 6.508 6.508 6.508 6.508 6.508 6.508 6.508 6.508 6.508 6.508 6.508 6.508 6.508 6.508 6.508 6.508 6.508 6.508 6.508 6.508 6.508 6.508 6.508 6.508 6.508 6.508 6.508 6.508 6.508 6.508 6.508 6.508 6.508 6.508 6.508 6.508 6.508 6.508 6.508 6.508 6.508 6.508 6.508 6.508 6.508 6.508 6.508 6.508 6.508 6.508 6.508 6.508 6.508 6.508 6.508 6.508 6.508 6.508 6.508 6.508 6.508 6.508 6.508 6.508 6.508 6.508 6.508 6.508 6.508 6.508 6.508 6.508 6.508 6.508 6.508 6.508 6.508 6.508 6.508 6.508 6.508 6.508 6.508 6.508 6.508 6.508 6.508 6.508 6.508 6.508 6.508 6.508 6.508 6.508 6.508 6.508 6.508 6.508 6.508 6.508 6.508 6.508 6.508 6.508 6.508 6.508 6.508 6.508 6.508 6.508 6.508 6.508 6.508 6.508 6.508 6.508 6.508 6.508 6.508 6.508 6.508 6.508 6.508 6.508 6.508 6.508 6.508 6.508 6.508 6.508 6.508 6.508 6.508 6.508 6.508 6.508 6.508 6.461 6.406 6.352 6.301 6.250 6.199 6.148 6.102 6.055
6.508 6.508 6.508 6.508 6.508 6.508 6.508 6.508 6.508 6.508 6.508 6.508 6.508 6.508 6.508 6.508 6.508 6.508 6.508 6.508 6.508 6.508 6.508 6.508 6.508 6.508 6.508 6.508 6.508 6.508 6.508 6.508 6.508 6.508 6.508 6.508 6.508 6.508 6.508 6.508 6.508 6.508 6.508 6.508 6.508 6.508 6.508 6.508 6.508 6.508 6.508 6.508 6.508 6.508 6.508 6.508 6.508 6.508 6.508 6.508 6.508 6.508 6.508 6.508 6.508 6.508 6.508 6.508 6.508 6.508 6.508 6.508 6.508 6.508 6.508 6.508 6.508 6.508 6.508 6.508 6.508 6.508 6.508 6.508 6.508 6.508 6.508 6.508 6.508 6.508 6.508 6.508 6.508 6.508 6.508 6.508 6.508 6.508 6.508 6.508 6.508 6.508 6.508 6.508 6.508 6.508 6.508 6.508 6.508 6.508 6.508 6.508 6.508 6.508 6.508 6.508 6.508 6.508 6.508 6.508 6.508 6.508 6.508 6.508 6.508 6.508 6.508 6.508 6.508 6.508 6.508 6.508 6.508 6.508 6.508 6.508 6.508 6.508 6.508 6.508 6.508 6.508 6.508 6.508 6.508 6.508 6.508 6.508 6.508 6.508 6.508 6.508 6.508 6.508 6.508 6.508 6.508 6.508 6.508 6.508 6.508 6.508 6.508 6.508 6.508 6.508 6.508 6.508 6.508 6.508 6.508 6.508 6.508 6.508 6.508 6.508 6.508 6.508 6.508 6.508 6.508 6.508 6.508 6.508 6.508 6.508 6.508 6.508 6.508 6.508 6.508 6.508 6.508 6.508 6.508 6.508 6.508 6.508 6.508 6.508 6.508 6.508 6.508 6.508 6.508 6.508 6.508 6.508 6.508 6.508 6.508 6.508 6.508 6.508 6.508 6.508 6.508 6.508 6.508 6.508 6.508 6.508 6.508 6.508 6.508 6.508 6.508 6.508 6.508 6.508 6.508 6.508 6.508 6.508 6.508 6.508 6.508 6.508 6.508 6.508 6.508 6.508 6.508 6.508 6.508 6.508 6.508 6.461 6.406 6.352 6.301 6.250 6.199 6.148 6.102 6.039
6.508 6.508 6.508 6.508 6.508 6.508 6.508 6.508 6.508 6.508 6.508 6.508 6.508 6.508 6.508 6.508 6.508 6.508 6.508 6.508 6.508 6.508 6.508 6.508 6.508 6.508 6.508 6.508 6.508 6.508 6.508 6.508 6.508 6.508 6.508 6.508 6.508 6.508 6.508 6.508 6.508 6.508 6.508 6.508 6.508 6.508 6.508 6.508 6.508 6.508 6.508 6.508 6.508 6.508 6.508 6.508 6.508 6.508 6.508 6.508 6.508 6.508 6.508 6.508 6.508 6.508 6.508 6.508 6.508 6.508 6.508 6.508 6.508 6.508 6.508 6.508 6.508 6.508 6.508 6.508 6.508 6.508 6.508 6.508 6.508 6.508 6.508 6.508 6.508 6.508 6.508 6.508 6.508 6.508 6.508 6.508 6.508 6.508 6.508 6.508 6.508 6.508 6.508 6.508 6.508 6.508 6.508 6.508 6.508 6.508 6.508 6.508 6.508 6.508 6.508 6.508 6.508 6.508 6.508 6.508 6.508 6.508 6.508 6.508 6.508 6.508 6.508 6.508 6.508 6.508 6.508 6.508 6.508 6.508 6.508 6.508 6.508 6.508 6.508 6.508 6.508 6.508 6.508 6.508 6.508 6.508 6.508 6.508 6.508 6.508 6.508 6.508 6.508 6.508 6.508 6.508 6.508 6.508 6.508 6.508 6.508 6.508 6.508 6.508 6.508 6.508 6.508 6.508 6.508 6.508 6.508 6.508 6.508 6.508 6.508 6.508 6.508 6.508 6.508 6.508 6.508 6.508 6.508 6.508 6.508 6.508 6.508 6.508 6.508 6.508 6.508 6.508 6.508 6.508 6.508 6.508 6.508 6.508 6.508 6.508 6.508 6.508 6.508 6.508 6.508 6.508 6.508 6.508 6.508 6.508 6.508 6.508 6.508 6.508 6.508 6.508 6.508 6.508 6.508 6.508 6.508 6.508 6.508 6.508 6.508 6.508 6.508 6.508 6.508 6.508 6.508 6.508 6.508 6.508 6.508 6.508 6.508 6.508 6.508 6.508 6.508 6.508 6.508 6.508 6.508 6.508 6.508 6.461 6.406 6.352 6.301 6.250 6.199 6.137 6.086 6.039
6.508 6.508 6.508 6.508 6.508 6.508 6.508 6.508 6.508 6.508 6.508 6.508 6.508 6.508 6.508 6.508 6.508 6.508 6.508 6.508 6.508 6.508 6.508 6.508 6.508 6.508 6.508 6.508 6.508 6.508 6.508 6.508 6.508 6.508 6.508 6.508 6.508 6.508 6.508 6.508 6.508 6.508 6.508 6.508 6.508 6.508 6.508 6.508 6.508 6.508 6.508 6.508 6.508 6.508 6.508 6.508 6.508 6.508 6.508 6.508 6.508 6.508 6.508 6.508 6.508 6.508 6.508 6.508 6.508 6.508 6.508 6.508 6.508 6.508 6.508 6.508 6.508 6.508 6.508 6.508 6.508 6.508 6.508 6.508 6.508 6.508 6.508 6.508 6.508 6.508 6.508 6.508 6.508 6.508 6.508 6.508 6.508 6.508 6.508 6.508 6.508 6.508 6.508 6.508 6.508 6.508 6.508 6.508 6.508 6.508 6.508 6.508 6.508 6.508 6.508 6.508 6.508 6.508 6.508 6.508 6.508 6.508 6.508 6.508 6.508 6.508 6.508 6.508 6.508 6.508 6.508 6.508 6.508 6.508 6.508 6.508 6.508 6.508 6.508 6.508 6.508 6.508 6.508 6.508 6.508 6.508 6.508 6.508 6.508 6.508 6.508 6.508 6.508 6.508 6.508 6.508 6.508 6.508 6.508 6.508 6.508 6.508 6.508 6.508 6.508 6.508 6.508 6.508 6.508 6.508 6.508 6.508 6.508 6.508 6.508 6.508 6.508 6.508 6.508 6.508 6.508 6.508 6.508 6.508 6.508 6.508 6.508 6.508 6.508 6.508 6.508 6.508 6.508 6.508 6.508 6.508 6.508 6.508 6.508 6.508 6.508 6.508 6.508 6.508 6.508 6.508 6.508 6.508 6.508 6.508 6.508 6.508 6.508 6.508 6.508 6.508 6.508 6.508 6.508 6.508 6.508 6.508 6.508 6.508 6.508 6.508 6.508 6.508 6.508 6.508 6.508 6.508 6.508 6.508 6.508 6.508 6.508 6.508 6.508 6.508 6.508 6.508 6.508 6.508 6.508 6.508 6.508 6.461 6.406 6.352 6.301 6.234 6.184 6.137 6.086 6.039
6.508 6.508 6.508 6.508 6.508 6.508 6.508 6.508 6.508 6.508 6.508 6.508 6.508 6.508 6.508 6.508 6.508 6.508 6.508 6.508 6.508 6.508 6.508 6.508 6.508 6.508 6.508 6.508 6.508 6.508 6.508 6.508 6.508 6.508 6.508 6.508 6.508 6.508 6.508 6.508 6.508 6.508 6.508 6.508 6.508 6.508 6.508 6.508 6.508 6.508 6.508 6.508 6.508 6.508 6.508 6.508 6.508 6.508 6.508 6.508 6.508 6.508 6.508 6.508 6.508 6.508 6.508 6.508 6.508 6.508 6.508 6.508 6.508 6.508 6.508 6.508 6.508 6.508 6.508 6.508 6.508 6.508 6.508 6.508 6.508 6.508 6.508 6.508 6.508 6.508 6.508 6.508 6.508 6.508 6.508 6.508 6.508 6.508 6.508 6.508 6.508 6.508 6.508 6.508 6.508 6.508 6.508 6.508 6.508 6.508 6.508 6.508 6.508 6.508 6.508 6.508 6.508 6.508 6.508 6.508 6.508 6.508 6.508 6.508 6.508 6.508 6.508 6.508 6.508 6.508 6.508 6.508 6.508 6.508 6.508 6.508 6.508 6.508 6.508 6.508 6.508 6.508 6.508 6.508 6.508 6.508 6.508 6.508 6.508 6.508 6.508 6.508 6.508 6.508 6.508 6.508 6.508 6.508 6.508 6.508 6.508 6.508 6.508 6.508 6.508 6.508 6.508 6.508 6.508 6.508 6.508 6.508 6.508 6.508 6.508 6.508 6.508 6.508 6.508 6.508 6.508 6.508 6.508 6.508 6.508 6.508 6.508 6.508 6.508 6.508 6.508 6.508 6.508 6.508 6.508 6.508 6.508 6.508 6.508 6.508 6.508 6.508 6.508 6.508 6.508 6.508 6.508 6.508 6.508 6.508 6.508 6.508 6.508 6.508 6.508 6.508 6.508 6.508 6.508 6.508 6.508 6.508 6.508 6.508 6.508 6.508 6.508 6.508 6.508 6.508 6.508 6.508 6.508 6.508 6.508 6.508 6.508 6.508 6.508 6.508 6.508 6.508 6.508 6.508 6.508 6.508 6.508 6.461 6.406 6.340 6.285 6.234 6.184 6.137 6.086 6.055
6.492 6.492 6.492 6.492 6.492 6.492 6.492 6.492 6.492 6.492 6.492 6.492 6.492 6.492 6.492 6.492 6.492 6.492 6.492 6.492 6.492 6.492 6.492 6.492 6.492 6.492 6.492 6.492 6.492 6.492 6.492 6.492 6.492 6.492 6.492 6.492 6.492 6.492 6.492 6.492 6.492 6.492 6.492 6.492 6.492 6.492 6.492 6.492 6.492 6.492 6.492 6.492 6.492 6.492 6.492 6.492 6.492 6.492 6.492 6.492 6.492 6.492 6.492 6.492 6.492 6.492 6.492 6.492 6.492 6.492 6.492 6.492 6.492 6.492 6.492 6.492 6.492 6.492 6.492 6.492 6.492 6.492 6.492 6.492 6.492 6.492 6.492 6.492 6.492 6.492 6.492 6.492 6.492 6.492 6.492 6.492 6.492 6.492 6.492 6.492 6.492 6.492 6.492 6.492 6.492 6.492 6.492 6.492 6.492 6.492 6.492 6.492 6.492 6.492 6.492 6.492 6.492 6.492 6.492 6.492 6.492 6.492 6.492 6.492 6.492 6.492 6.492 6.492 6.492 6.492 6.492 6.492 6.492 6.492 6.492 6.492 6.492 6.492 6.492 6.492 6.492 6.492 6.492 6.492 6.492 6.492 6.492 6.492 6.492 6.492 6.492 6.492 6.492 6.492 6.492 6.492 6.492 6.492 6.492 6.492 6.492 6.492 6.492 6.492 6.492 6.492 6.492 6.492 6.492 6.492 6.492 6.492 6.492 6.492 6.492 6.492 6.492 6.492 6.492 6.492 6.492 6.492 6.492 6.492 6.492 6.492 6.492 6.492 6.492 6.492 6.492 6.492 6.492 6.492 6.492 6.492 6.492 6.492 6.492 6.492 6.492 6.492 6.492 6.492 6.492 6.492 6.492 6.492 6.492 6.492 6.492 6.492 6.492 6.492 6.492 6.492 6.492 6.492 6.492 6.492 6.492 6.492 6.492 6.492 6.492 6.492 6.492 6.492 6.492 6.492 6.492 6.492 6.492 6.492 6.492 6.492 6.492 6.492 6.492 6.492 6.492 6.492 6.492 6.492 6.492 6.492 6.492 6.445 6.391 6.340 6.285 6.234 6.184 6.148 6.102 6.055
6.492 6.492 6.492 6.492 6.492 6.492 6.492 6.492 6.492 6.492 6.492 6.492 6.492 6.492 6.492 6.492 6.492 6.492 6.492 6.492 6.492 6.492 6.492 6.492 6.492 6.492 6.492 6.492 6.492 6.492 6.492 6.492 6.492 6.492 6.492 6.492 6.492 6.492 6.492 6.492 6.492 6.492 6.492 6.492 6.492 6.492 6.492 6.492 6.492 6.492 6.492 6.492 6.492 6.492 6.492 6.492 6.492 6.492 6.492 6.492 6.492 6.492 6.492 6.492 6.492 6.492 6.492 6.492 6.492 6.492 6.492 6.492 6.492 6.492 6.492 6.492 6.492 6.492 6.492 6.492 6.492 6.492 6.492 6.492 6.492 6.492 6.492 6.492 6.492 6.492 6.492 6.492 6.492 6.492 6.492 6.492 6.492 6.492 6.492 6.492 6.492 6.492 6.492 6.492 6.492 6.492 6.492 6.492 6.492 6.492 6.492 6.492 6.492 6.492 6.492 6.492 6.492 6.492 6.492 6.492 6.492 6.492 6.492 6.492 6.492 6.492 6.492 6.492 6.492 6.492 6.492 6.492 6.492 6.492 6.492 6.492 6.492 6.492 6.492 6.492 6.492 6.492 6.492 6.492 6.492 6.492 6.492 6.492 6.492 6.492 6.492 6.492 6.492 6.492 6.492 6.492 6.492 6.492 6.492 6.492 6.492 6.492 6.492 6.492 6.492 6.492 6.492 6.492 6.492 6.492 6.492 6.492 6.492 6.492 6.492 6.492 6.492 6.492 6.492 6.492 6.492 6.492 6.492 6.492 6.492 6.492 6.492 6.492 6.492 6.492 6.492 6.492 6.492 6.492 6.492 6.492 6.492 6.492 6.492 6.492 6.492 6.492 6.492 6.492 6.492 6.492 6.492 6.492 6.492 6.492 6.492 6.492 6.492 6.492 6.492 6.492 6.492 6.492 6.492 6.492 6.492 6.492 6.492 6.492 6.492 6.492 6.492 6.492 6.492 6.492 6.492 6.492 6.492 6.492 6.492 6.492 6.492 6.492 6.492 6.492 6.492 6.492 6.492 6.492 6.492 6.492 6.492 6.445 6.391 6.340 6.289 6.250 6.199 6.148 6.102 6.055
6.492 6.492 6.492 6.492 6.492 6.492 6.492 6.492 6.492 6.492 6.492 6.492 6.492 6.492 6.492 6.492 6.492 6.492 6.492 6.492 6.492 6.492 6.492 6.492 6.492 6.492 6.492 6.492 6.492 6.492 6.492 6.492 6.492 6.492 6.492 6.492 6.492 6.492 6.492 6.492 6.492 6.492 6.492 6.492 6.492 6.492 6.492 6.492 6.492 6.492 6.492 6.492 6.492 6.492 6.492 6.492 6.492 6.492 6.492 6.492 6.492 6.492 6.492 6.492 6.492 6.492 6.492 6.492 6.492 6.492 6.492 6.492 6.492 6.492 6.492 6.492 6.492 6.492 6.492 6.492 6.492 6.492 6.492 6.492 6.492 6.492 6.492 6.492 6.492 6.492 6.492 6.492 6.492 6.492 6.492 6.492 6.492 6.492 6.492 6.492 6.492 6.492 6.492 6.492 6.492 6.492 6.492 6.492 6.492 6.492 6.492 6.492 6.492 6.492 6.492 6.492 6.492 6.492 6.492 6.492 6.492 6.492 6.492 6.492 6.492 6.492 6.492 6.492 6.492 6.492 6.492 6.492 6.492 6.492 6.492 6.492 6.492 6.492 6.492 6.492 6.492 6.492 6.492 6.492 6.492 6.492 6.492 6.492 6.492 6.492 6.492 6.492 6.492 6.492 6.492 6.492 6.492 6.492 6.492 6.492 6.492 6.492 6.492 6.492 6.492 6.492 6.492 6.492 6.492 6.492 6.492 6.492 6.492 6.492 6.492 6.492 6.492 6.492 6.492 6.492 6.492 6.492 6.492 6.492 6.492 6.492 6.492 6.492 6.492 6.492 6.492 6.492 6.492 6.492 6.492 6.492 6.492 6.492 6.492 6.492 6.492 6.492 6.492 6.492 6.492 6.492 6.492 6.492 6.492 6.492 6.492 6.492 6.492 6.492 6.492 6.492 6.492 6.492 6.492 6.492 6.492 6.492 6.492 6.492 6.492 6.492 6.492 6.492 6.492 6.492 6.492 6.492 6.492 6.492 6.492 6.492 6.492 6.492 6.492 6.492 6.492 6.492 6.492 6.492 6.492 6.492 6.492 6.445 6.406 6.352 6.301 6.250 6.199 6.148 6.102 6.055
6.508 6.508 6.508 6.508 6.508 6.508 6.508 6.508 6.508 6.508 6.508 6.508 6.508 6.508 6.508 6.508 6.508 6.508 6.508 6.508 6.508 6.508 6.508 6.508 6.508 6.508 6.508 6.508 6.508 6.508 6.508 6.508 6.508 6.508 6.508 6.508 6.508 6.508 6.508 6.508 6.508 6.508 6.508 6.508 6.508 6.508 6.508 6.508 6.508 6.508 6.508 6.508 6.508 6.508 6.508 6.508 6.508 6.508 6.508 6.508 6.508 6.508 6.508 6.508 6.508 6.508 6.508 6.508 6.508 6.508 6.508 6.508 6.508 6.508 6.508 6.508 6.508 6.508 6.508 6.508 6.508 6.508 6.508 6.508 6.508 6.508 6.508 6.508 6.508 6.508 6.508 6.508 6.508 6.508 6.508 6.508 6.508 6.508 6.508 6.508 6.508 6.508 6.508 6.508 6.508 6.508 6.508 6.508 6.508 6.508 6.508 6.508 6.508 6.508 6.508 6.508 6.508 6.508 6.508 6.508 6.508 6.508 6.508 6.508 6.508 6.508 6.508 6.508 6.508 6.508 6.508 6.508 6.508 6.508 6.508 6.508 6.508 6.508 6.508 6.508 6.508 6.508 6.508 6.508 6.508 6.508 6.508 6.508 6.508 6.508 6.508 6.508 6.508 6.508 6.508 6.508 6.508 6.508 6.508 6.508 6.508 6.508 6.508 6.508 6.508 6.508 6.508 6.508 6.508 6.508 6.508 6.508 6.508 6.508 6.508 6.508 6.508 6.508 6.508 6.508 6.508 6.508 6.508 6.508 6.508 6.508 6.508 6.508 6.508 6.508 6.508 6.508 6.508 6.508 6.508 6.508 6.508 6.508 6.508 6.508 6.508 6.508 6.508 6.508 6.508 6.508 6.508 6.508 6.508 6.508 6.508 6.508 6.508 6.508 6.508 6.508 6.508 6.508 6.508 6.508 6.508 6.508 6.508 6.508 6.508 6.508 6.508 6.508 6.508 6.508 6.508 6.508 6.508 6.508 6.508 6.508 6.508 6.508 6.508 6.508 6.508 6.508 6.508 6.508 6.508 6.508 6.508 6.461 6.406 6.352 6.301 6.250 6.199 6.148 6.102 6.055
6.508 6.508 6.508 6.508 6.508 6.508 6.508 6.508 6.508 6.508 6.508 6.508 6.508 6.508 6.508 6.508 6.508 6.508 6.508 6.508 6.508 6.508 6.508 6.508 6.508 6.508 6.508 6.508 6.508 6.508 6.508 6.508 6.508 6.508 6.508 6.508 6.508 6.508 6.508 6.508 6.508 6.508 6.508 6.508 6.508 6.508 6.508 6.508 6.508 6.508 6.508 6.508 6.508 6.508 6.508 6.508 6.508 6.508 6.508 6.508 6.508 6.508 6.508 6.508 6.508 6.508 6.508 6.508 6.508 6.508 6.508 6.508 6.508 6.508 6.508 6.508 6.508 6.508 6.508 6.508 6.508 6.508 6.508 6.508 6.508 6.508 6.508 6.508 6.508 6.508 6.508 6.508 6.508 6.508 6.508 6.508 6.508 6.508 6.508 6.508 6.508 6.508 6.508 6.508 6.508 6.508 6.508 6.508 6.508 6.508 6.508 6.508 6.508 6.508 6.508 6.508 6.508 6.508 6.508 6.508 6.508 6.508 6.508 6.508 6.508 6.508 6.508 6.508 6.508 6.508 6.508 6.508 6.508 6.508 6.508 6.508 6.508 6.508 6.508 6.508 6.508 6.508 6.508 6.508 6.508 6.508 6.508 6.508 6.508 6.508 6.508 6.508 6.508 6.508 6.508 6.508 6.508 6.508 6.508 6.508 6.508 6.508 6.508 6.508 6.508 6.508 6.508 6.508 6.508 6.508 6.508 6.508 6.508 6.508 6.508 6.508 6.508 6.508 6.508 6.508 6.508 6.508 6.508 6.508 6.508 6.508 6.508 6.508 6.508 6.508 6.508 6.508 6.508 6.508 6.508 6.508 6.508 6.508 6.508 6.508 6.508 6.508 6.508 6.508 6.508 6.508 6.508 6.508 6.508 6.508 6.508 6.508 6.508 6.508 6.508 6.508 6.508 6.508 6.508 6.508 6.508 6.508 6.508 6.508 6.508 6.508 6.508 6.508 6.508 6.508 6.508 6.508 6.508 6.508 6.508 6.508 6.508 6.508 6.508 6.508 6.508 6.508 6.508 6.508 6.508 6.508 6.508 6.461 6.406 6.352 6.301 6.250 6.199 6.148 6.102 6.055
6.523 6.531 6.531 6.531 6.531 6.531 6.531 6.531 6.531 6.539 6.539 6.539 6.180 6.539 6.539 6.539 6.539 6.539 6.539 6.539 6.539 6.539 6.539 6.539 6.539 6.539 6.539 6.539 6.539 6.539 6.539 6.539 6.539 6.539 6.539 6.539 6.539 6.539 6.539 6.539 6.539 6.539 6.539 6.539 6.539 6.539 6.539 6.539 6.539 6.539 6.539 6.539 6.539 6.539 6.539 6.539 6.539 6.539 6.539 6.539 6.539 6.539 6.539 6.539 6.539 6.539 6.539 6.539 6.539 6.539 6.539 6.539 6.539 6.539 6.539 6.539 6.539 6.539 6.539 6.539 6.539 6.539 6.539 6.539 6.539 6.539 6.539 6.539 6.539 6.539 6.539 6.539 6.539 6.539 6.539 6.539 6.539 6.539 6.539 6.539 6.539 6.539 6.539 6.539 6.539 6.539 6.539 6.539 6.539 6.539 6.539 6.539 6.539 6.539 6.539 6.539 6.539 6.539 6.539 6.539 6.539 6.539 6.539 6.539 6.539 6.539 6.539 6.539 6.539 6.539 6.539 6.539 6.539 6.539 6.539 6.539 6.539 6.539 6.539 6.539 6.539 6.539 6.539 6.539 6.539 6.539 6.539 6.539 6.539 6.539 6.539 6.539 6.539 6.539 6.539 6.539 6.539 6.539 6.539 6.539 6.539 6.539 6.539 6.539 6.539 6.539 6.539 6.539 6.539 6.539 6.539 6.539 6.539 6.539 6.539 6.539 6.539 6.539 6.539 6.539 6.539 6.539 6.539 6.539 6.539 6.539 6.539 6.539 6.539 6.539 6.539 6.539 6.539 6.539 6.539 6.539 6.539 6.539 6.539 6.539 6.539 6.539 6.539 6.539 6.539 6.539 6.539 6.539 6.539 6.539 6.539 6.539 6.539 6.539 6.539 6.539 6.539 6.539 6.539 6.539 6.539 6.539 6.539 6.539 6.539 6.539 6.539 6.539 6.539 6.539 6.539 6.539 6.539 6.539 6.539 6.539 6.539 6.539 6.539 6.539 6.539 6.539 6.539 6.539 6.539 6.539 6.516 6.461 6.406 6.352 6.301 6.250 6.199 6.148 6.102 6.055
6.523 6.562 6.574 6.586 6.598 6.609 6.621 6.637 6.648 6.660 6.672 6.672 6.203 6.219 6.672 6.672 6.672 6.672 6.672 6.672 6.672 6.672 6.672 6.672 6.672 6.672 6.672 6.672 6.672 6.672 6.672 6.672 6.672 6.672 6.672 6.672 6.672 6.672 6.672 6.672 6.672 6.672 6.672 6.672 6.672 6.672 6.672 6.672 6.672 6.672 6.672 6.672 6.672 6.672 6.672 6.672 6.672 6.672 6.672 6.672 6.672 6.672 6.672 6.672 6.672 6.672 6.672 6.672 6.672 6.672 6.672 6.672 6.672 6.672 6.672 6.672 6.672 6.672 6.672 6.672 6.672 6.672 6.672 6.672 6.672 6.672 6.672 6.672 6.672 6.672 6.672 6.672 6.672 6.672 6.672 6.672 6.672 6.672 6.672 6.672 6.672 6.672 6.672 6.672 6.672 6.672 6.672 6.672 6.672 6.672 6.672 6.672 6.672 6.672 6.672 6.672 6.672 6.672 6.672 6.672 6.672 6.672 6.672 6.672 6.672 6.672 6.672 6.672 6.672 6.672 6.672 6.672 6.672 6.672 6.672 6.672 6.672 6.672 6.672 6.672 6.672 6.672 6.672 6.672 6.672 6.672 6.672 6.672 6.672 6.672 6.672 6.672 6.672 6.672 6.672 6.672 6.672 6.672 6.672 6.672 6.672 6.672 6.672 6.672 6.672 6.672 6.672 6.672 6.672 6.672 6.672 6.672 6.672 6.672 6.672 6.672 6.672 6.672 6.672 6.672 6.672 6.672 6.672 6.672 6.672 6.672 6.672 6.672 6.672 6.672 6.672 6.672 6.672 6.672 6.672 6.672 6.672 6.672 6.672 6.672 6.668 6.621 6.621 6.621 6.621 6.621 6.621 6.621 6.672 6.672 6.672 6.672 6.672 6.672 6.672 6.672 6.672 6.672 6.672 6.672 6.672 6.672 6.672 6.672 6.672 6.672 6.672 6.672 6.672 6.672 6.672 6.672 6.672 6.672 6.672 6.672 6.672 6.672 6.672 6.672 6.672 6.672 6.672 6.672 6.625 6.570 6.516 6.461 6.406 6.352 6.301 6.250 6.199 6.148 6.102 6.055
6.523 6.598 6.598 6.598 6.602 6.613 6.621 5.992 6.023 6.035 6.672 6.688 6.219 6.238 6.254 6.738 6.133 6.762 6.777 6.789 6.801 6.449 6.812 6.812 6.812 6.812 6.812 6.812 6.812 6.812 6.812 6.812 6.812 6.812 6.812 6.812 6.812 6.812 6.812 6.812 6.812 6.812 6.812 6.812 6.812 6.812 6.812 6.812 6.812 6.812 6.812 6.812 6.812 6.812 6.812 6.812 6.812 6.812 6.812 6.812 6.812 6.812 6.812 6.812 6.812 6.812 6.812 6.812 6.812 6.812 6.812 6.812 6.812 6.812 6.812 6.812 6.812 6.812 6.812 6.812 6.812 6.812 6.812 6.812 6.812 6.812 6.812 6.812 6.812 6.812 6.812 6.812 6.812 6.812 6.812 6.812 6.812 6.812 6.812 6.812 6.812 6.812 6.812 6.812 6.812 6.812 6.812 6.812 6.812 6.812 6.812 6.812 6.812 6.812 6.812 6.812 6.812 6.812 6.812 6.812 6.812 6.812 6.812 6.812 6.812 6.812 6.812 6.812 6.812 6.812 6.812 6.812 6.812 6.812 6.812 6.812 6.812 6.812 6.812 6.812 6.812 6.812 6.812 6.812 6.812 6.812 6.812 6.812 6.812 6.812 6.812 6.812 6.812 6.812 6.812 6.812 6.812 6.812 6.812 6.812 6.812 6.812 6.812 6.812 6.812 6.812 6.812 6.812 6.812 6.812 6.812 6.812 6.812 6.812 6.812 6.812 6.812 6.812 6.812 6.812 6.812 6.812 6.812 6.812 6.812 6.812 6.812 6.812 6.812 6.812 6.812 6.812 6.812 6.812 6.812 6.812 6.812 6.812 6.812 6.762 6.668 6.621 6.621 6.621 6.621 6.621 6.621 6.621 6.812 6.812 6.812 6.812 6.812 6.812 6.812 6.812 6.812 6.812 6.812 6.812 6.812 6.812 6.812 6.812 6.812 6.812 6.812 6.812 6.812 6.812 6.812 6.812 6.812 6.812 6.812 6.812 6.812 6.812 6.812 6.812 6.812 6.801 6.742 6.684 6.625 6.570 6.516 6.461 6.406 6.352 6.301 6.250 6.199 6.148 6.102 6.055
6.523 6.762 6.824 6.891 6.957 6.961 6.961 6.961 6.047 6.074 6.102 6.125 6.113 6.254 6.270 6.250 6.180 6.184 6.777 6.789 6.426 6.465 6.828 6.840 6.855 6.867 6.883 6.895 6.910 6.922 6.938 6.949 6.961 6.961 6.961 6.961 6.961 6.961 6.961 6.961 6.961 6.961 6.961 6.961 6.961 6.961 6.961 6.961 6.961 6.961 6.961 6.961 6.961 6.961 6.961 6.961 6.961 6.961 6.961 6.961 6.961 6.961 6.961 6.961 6.961 6.961 6.961 6.961 6.961 6.961 6.961 6.961 6.961 6.961 6.961 6.961 6.961 6.961 6.961 6.961 6.961 6.961 6.961 6.961 6.961 6.961 6.961 6.961 6.961 6.961 6.961 6.961 6.961 6.961 6.961 6.961 6.961 6.961 6.961 6.961 6.961 6.961 6.961 6.961 6.961 6.961 6.961 6.961 6.961 6.961 6.961 6.961 6.961 6.961 6.961 6.961 6.961 6.961 6.961 6.961 6.961 6.961 6.961 6.961 6.961 6.961 6.961 6.961 6.961 6.961 6.961 6.961 6.961 6.961 6.961 6.961 6.961 6.961 6.961 6.961 6.961 6.961 6.961 6.961 6.961 6.961 6.961 6.961 6.961 6.961 6.961 6.961 6.961 6.961 6.961 6.961 6.961 6.961 6.961 6.961 6.961 6.961 6.961 6.961 6.961 6.961 6.961 6.961 6.961 6.961 6.961 6.961 6.961 6.961 6.961 6.961 6.961 6.961 6.961 6.961 6.961 6.961 6.961 6.961 6.961 6.961 6.961 6.961 6.961 6.961 6.961 6.961 6.961 6.961 6.961 6.961 6.961 6.957 6.855 6.762 6.668 6.621 6.621 6.621 6.621 6.621 6.621 6.621 6.961 6.961 6.961 6.961 6.961 6.961 6.961 6.961 6.961 6.961 6.961 6.961 6.961 6.961 6.961 6.961 6.961 6.961 6.961 6.961 6.961 6.961 6.961 6.961 6.961 6.961 6.961 6.961 6.961 6.961 6.961 6.922 6.859 6.801 6.742 6.684 6.625 6.570 6.516 6.461 6.406 6.352 6.301 6.250 6.199 6.148 6.102 6.055
6.523 6.746 6.812 6.891 6.680 6.695 7.094 7.113 7.113 6.672 6.125 6.148 6.172 6.191 6.164 6.297 6.238 6.223 6.223 6.398 6.441 6.480 6.887 6.887 6.887 6.887 6.887 6.898 6.910 6.922 6.938 6.949 6.965 6.977 6.992 7.004 7.020 7.031 7.047 7.062 7.074 7.090 7.102 7.113 7.113 7.113 7.113 7.113 7.113 7.113 7.113 7.113 7.113 7.113 7.113 7.113 7.113 7.113 7.113 7.113 7.113 7.113 7.113 7.113 7.113 7.113 7.113 7.113 7.113 7.113 7.113 7.113 7.113 7.113 7.113 7.113 7.113 7.113 7.113 7.113 7.113 7.113 7.113 7.113 7.113 7.113 7.113 7.113 7.113 7.113 7.113 7.113 7.113 7.113 7.113 7.113 7.113 7.113 7.113 7.113 7.113 7.113 7.113 7.113 7.113 7.113 7.113 7.113 7.113 7.113 7.113 7.113 7.113 7.113 7.113 7.113 7.113 7.113 7.113 7.113 7.113 7.113 7.113 7.113 7.113 7.113 7.113 7.113 7.113 7.113 7.113 7.113 7.113 7.113 7.113 7.113 7.113 7.113 7.113 7.113 7.113 7.113 7.113 7.113 7.113 7.113 7.113 7.113 7.113 7.113 7.113 7.113 7.113 7.113 7.113 7.113 7.113 7.113 7.113 7.113 7.113 7.113 7.113 7.113 7.113 7.113 7.113 7.113 7.113 7.113 7.113 7.113 7.113 7.113 7.113 7.113 7.113 7.113 7.113 7.113 7.113 7.113 7.113 7.113 7.113 7.113 7.113 7.113 7.113 7.113 7.113 7.113 7.113 7.113 7.113 7.113 7.059 6.957 6.855 6.762 6.668 6.621 6.621 6.621 6.621 6.621 6.621 6.621 7.113 7.113 7.113 7.113 7.113 7.113 7.113 7.113 7.113 7.113 7.113 7.113 7.113 7.113 7.113 7.113 7.113 7.113 7.113 7.113 7.113 7.113 7.113 7.113 7.113 7.113 7.113 7.113 7.113 7.051 6.984 6.922 6.859 6.801 6.742 6.684 6.625 6.570 6.516 6.461 6.406 6.352 6.301 6.250 6.199 6.148 6.102 6.055
6.523 6.766 6.812 6.875 6.941 6.625 6.637 7.164 7.238 7.273 7.273 6.172 6.195 6.215 6.230 6.219 6.004 6.062 6.090 6.055 6.453 6.824 6.832 6.848 7.273 7.273 7.273 7.273 7.273 7.273 7.273 7.043 7.043 7.043 7.043 7.043 7.043 7.043 7.051 7.062 7.074 7.090 7.102 7.117 7.133 7.148 7.160 7.176 7.191 7.203 7.219 7.234 7.250 7.266 7.273 7.273 7.273 7.273 7.273 7.273 7.273 7.273 7.273 7.273 7.273 7.273 7.273 7.273 7.273 7.273 7.273 7.273 7.273 7.273 7.273 7.273 7.273 7.273 7.273 7.273 7.273 7.273 7.273 7.273 7.273 7.273 7.273 7.273 7.273 7.273 7.273 7.273 7.273 7.273 7.273 7.273 7.273 7.273 7.273 7.273 7.273 7.273 7.273 7.273 7.273 7.273 7.273 7.273 7.273 7.273 7.273 7.273 7.273 7.273 7.273 7.273 7.273 7.273 7.273 7.273 7.273 7.273 7.273 7.273 7.273 7.273 7.273 7.273 7.273 7.273 7.273 7.273 7.273 7.273 7.273 7.273 7.273 7.273 7.273 7.273 7.273 7.273 7.273 7.273 7.273 7.273 7.273 7.273 7.273 7.273 7.273 7.273 7.273 7.273 7.273 7.273 7.273 7.273 7.273 7.273 7.273 7.273 7.273 7.273 7.273 7.273 7.273 7.273 7.273 7.273 7.273 7.273 7.273 7.273 7.273 7.273 7.273 7.273 7.273 7.273 7.273 7.273 7.273 7.273 7.273 7.273 7.273 7.273 7.273 7.273 7.273 7.273 7.273 7.273 7.270 7.164 7.059 6.957 6.855 6.762 6.668 6.621 6.621 6.621 6.621 6.621 6.621 6.621 7.273 7.273 7.273 7.273 7.273 7.273 7.273 7.273 7.273 7.273 7.273 7.273 7.273 7.273 7.273 7.273 7.273 7.273 7.273 7.273 7.273 7.273 7.273 7.273 7.273 7.273 7.246 7.180 7.113 7.051 6.984 6.922 6.859 6.801 6.742 6.684 6.625 6.570 6.516 6.461 6.406 6.352 6.301 6.250 6.199 6.148 6.102 6.055
6.523 6.863 6.914 6.918 6.941 7.012 7.082 7.164 5.879 5.930 5.973 5.949 5.996 6.234 6.250 6.266 6.094 6.141 6.152 6.133 6.461 7.441 7.441 6.551 6.582 6.625 6.668 6.992 7.004 7.441 7.441 7.441 7.441 6.980 6.992 7.008 7.441 7.441 7.441 7.441 7.441 7.090 7.102 7.121 7.203 7.203 7.203 7.203 7.203 7.211 7.219 7.234 7.250 7.266 7.281 7.293 7.309 7.324 7.340 7.355 7.371 7.387 7.402 7.418 7.434 7.441 7.441 7.441 7.441 7.055 7.441 7.441 7.441 7.441 7.441 7.441 7.441 7.441 7.441 7.441 7.441 7.441 7.441 7.441 7.441 7.441 7.441 7.441 7.441 7.441 7.441 7.441 7.441 7.441 7.441 7.441 7.441 7.441 7.441 7.441 7.441 7.441 7.441 7.441 7.441 7.441 7.441 7.441 7.441 7.441 7.441 7.441 7.441 7.441 7.441 7.441 7.441 7.441 7.441 7.441 7.441 7.441 7.441 7.441 7.441 7.441 7.441 7.441 7.441 7.441 7.441 7.441 7.441 7.441 7.441 7.441 7.441 7.441 7.441 7.441 7.441 7.441 7.441 7.441 7.441 7.441 7.441 7.441 7.441 7.441 7.441 7.441 7.441 7.441 7.441 7.441 7.441 7.441 7.441 7.441 7.441 7.441 7.441 7.441 7.441 7.441 7.441 7.441 7.441 7.441 7.441 7.441 7.441 7.441 7.441 7.441 7.441 7.441 7.441 7.441 7.441 7.441 7.441 7.441 7.441 7.441 7.441 7.441 7.441 7.441 7.441 7.441 7.441 7.383 7.270 7.164 7.059 6.957 6.855 6.762 6.668 6.621 6.621 6.621 6.621 6.621 6.621 6.621 7.441 7.441 7.441 7.441 7.441 7.441 7.441 7.441 7.441 7.441 7.441 7.441 7.441 7.441 7.441 7.441 7.441 7.441 7.441 7.441 7.441 7.441 7.441 7.441 7.387 7.316 7.246 7.180 7.113 7.051 6.984 6.922 6.859 6.801 6.742 6.684 6.625 6.570 6.516 6.461 6.406 6.352 6.301 6.250 6.199 6.148 6.102 6.055
6.523 6.863 6.926 6.992 7.062 6.695 6.195 6.234 6.246 6.000 6.039 6.078 6.105 6.129 6.148 6.070 6.156 6.195 6.203 6.195 7.617 7.617 6.484 6.512 6.539 6.570 7.617 7.617 7.617 6.926 6.938 6.953 7.617 7.617 7.617 7.617 7.617 7.617 7.148 7.164 7.617 7.090 7.102 7.121 7.617 7.617 7.617 7.617 7.617 7.617 7.617 7.617 7.617 7.617 7.375 7.375 7.375 7.375 7.375 7.375 7.375 7.387 7.402 7.004 6.797 7.449 7.465 6.957 7.047 7.070 7.527 7.543 7.559 7.578 7.594 7.609 7.617 7.617 7.617 7.617 7.617 7.598 7.539 7.504 7.492 7.488 7.496 7.508 7.527 7.562 7.598 7.617 7.617 7.617 7.617 7.617 7.617 7.617 7.617 7.617 7.617 7.617 7.617 7.617 7.617 7.617 7.617 7.617 7.617 7.617 7.617 7.617 7.617 7.617 7.617 7.617 7.617 7.617 7.617 7.602 7.617 7.617 7.617 7.617 7.617 7.617 7.617 7.617 7.617 7.617 7.617 7.617 7.617 7.617 7.617 7.617 7.617 7.617 7.617 7.617 7.617 7.617 7.617 7.617 7.617 7.617 7.617 7.617 7.617 7.602 7.602 7.617 7.617 7.617 7.617 7.617 7.617 7.617 7.617 7.617 7.617 7.617 7.617 7.617 7.617 7.617 7.617 7.617 7.617 7.617 7.617 7.617 7.617 7.617 7.617 7.617 7.617 7.617 7.617 7.609 7.602 7.617 7.617 7.617 7.617 7.617 7.617 7.617 7.617 7.617 7.617 7.613 7.496 7.383 7.270 7.164 7.059 6.957 6.855 6.762 6.668 6.621 6.621 6.621 6.621 6.621 6.621 6.621 7.617 7.617 7.617 7.617 7.617 7.617 7.617 7.617 7.617 7.617 7.617 7.617 7.617 7.617 7.617 7.617 7.617 7.617 7.617 7.617 7.617 7.605 7.531 7.457 7.387 7.316 7.246 7.180 7.113 7.051 6.984 6.922 6.859 6.801 6.742 6.684 6.625 6.570 6.516 6.461 6.406 6.352 6.301 6.250 6.199 6.148 6.102 6.055
6.523 6.863 5.820 6.992 7.062 7.129 6.246 6.266 6.277 6.297 6.188 6.207 6.336 6.535 6.320 7.789 6.363 6.234 6.246 6.242 6.289 6.438 6.391 6.402 6.414 6.441 7.801 7.801 7.801 7.801 7.801 7.801 7.801 7.801 7.801 7.105 7.121 7.801 7.801 7.801 7.801 7.090 7.102 7.117 7.801 7.801 7.801 7.176 7.191 7.801 7.801 7.801 7.801 7.801 7.801 7.801 7.801 7.801 6.867 6.883 6.895 6.859 7.035 7.031 6.863 6.812 7.551 7.012 7.059 7.090 7.551 7.555 7.562 7.578 7.594 7.609 7.625 7.641 7.660 7.676 7.691 7.598 7.539 7.504 7.492 7.488 7.496 7.508 7.527 7.562 7.598 7.652 7.727 7.801 7.801 7.801 7.801 7.801 7.801 7.801 7.801 7.801 7.801 7.801 7.801 7.801 7.801 7.801 7.801 7.801 7.801 7.801 7.801 7.801 7.801 7.801 7.801 7.801 7.801 7.785 7.785 7.801 7.801 7.801 7.801 7.801 7.801 7.801 7.801 7.801 7.801 7.801 7.801 7.801 7.801 7.801 7.801 7.801 7.801 7.801 7.801 7.801 7.801 7.801 7.801 7.801 7.801 7.801 7.801 7.785 7.801 7.801 7.801 7.801 7.801 7.801 7.801 7.801 7.801 7.801 7.801 7.801 7.801 7.801 7.801 7.801 7.801 7.801 7.801 7.801 7.801 7.801 7.801 7.801 7.801 7.801 7.801 7.801 7.785 7.785 7.801 7.801 7.801 7.801 7.801 7.801 7.801 7.801 7.801 7.801 7.734 7.613 7.496 7.383 7.270 7.164 7.059 6.957 6.855 6.762 6.668 6.621 6.621 6.621 6.621 6.621 6.621 6.621 7.801 7.801 7.801 7.801 7.801 7.801 7.801 7.801 7.801 7.801 7.801 7.801 7.801 7.801 7.801 7.801 7.801 7.801 7.801 7.758 7.680 7.605 7.531 7.457 7.387 7.316 7.246 7.180 7.113 7.051 6.984 6.922 6.859 6.801 6.742 6.684 6.625 6.570 6.516 6.461 6.406 6.352 6.301 6.250 6.199 6.148 6.102 6.055
6.523 6.863 6.926 5.836 5.867 5.898 6.117 6.129 6.141 6.156 6.176 6.016 6.047 6.078 6.113 6.285 6.500 5.973 5.988 6.348 7.992 7.992 6.340 6.348 6.375 6.398 6.426 6.461 6.492 7.992 7.035 7.047 7.992 7.992 7.992 7.992 7.992 7.031 7.047 7.992 7.992 6.656 7.102 7.117 7.129 6.590 6.668 6.711 7.992 7.992 7.992 7.992 7.355 7.367 7.992 7.992 7.992 7.992 7.348 6.910 7.992 6.941 6.629 6.672 7.043 6.898 6.941 7.043 7.070 7.992 7.992 7.992 7.176 7.992 7.992 7.660 7.992 7.738 7.738 7.738 7.691 7.598 7.539 7.504 7.492 7.488 7.496 7.508 7.527 7.562 7.598 7.652 7.727 7.840 7.992 7.992 7.992 7.992 7.992 7.992 7.992 7.992 7.992 7.992 7.992 7.992 7.992 7.992 7.992 7.992 7.992 7.992 7.992 7.992 7.992 7.992 7.992 7.992 7.992 7.980 7.980 7.992 7.992 7.992 7.992 7.992 7.992 7.992 7.992 7.992 7.992 7.992 7.992 7.992 7.992 7.992 7.992 7.992 7.992 7.910 7.895 7.992 7.992 7.992 7.992 7.992 7.992 7.992 7.980 7.980 7.992 7.992 7.992 7.992 7.992 7.992 7.992 7.992 7.992 7.992 7.992 7.992 7.992 7.992 7.992 7.992 7.992 7.992 7.992 7.992 7.992 7.992 7.992 7.992 7.992 7.992 7.992 7.980 7.992 7.992 7.992 7.992 7.992 7.992 7.992 7.992 7.992 7.992 7.992 7.859 7.734 7.613 7.496 7.383 7.270 7.164 7.059 6.957 6.855 6.762 6.668 6.621 6.621 6.621 6.621 6.621 6.621 6.621 7.992 7.992 7.992 7.992 7.992 7.992 7.992 7.992 7.992 7.984 7.973 7.992 7.992 7.992 7.992 7.992 7.992 7.918 7.836 7.758 7.680 7.605 7.531 7.457 7.387 7.316 7.246 7.180 7.113 7.051 6.984 6.922 6.859 6.801 6.742 6.684 6.625 6.570 6.516 6.461 6.406 6.352 6.301 6.250 6.199 6.148 6.102 6.055
6.523 6.863 6.926 6.992 5.855 5.887 5.922 7.273 6.129 6.035 5.965 5.988 6.008 6.223 6.246 7.770 5.984 6.008 6.031 6.160 6.180 6.207 6.246 6.594 6.633 8.195 8.195 8.195 8.195 8.195 8.195 8.195 8.195 8.195 8.195 8.195 8.195 6.539 6.520 8.195 8.195 6.531 6.508 7.121 8.195 6.645 6.703 6.727 7.297 7.309 7.324 8.195 8.195 8.195 8.195 7.301 7.312 8.180 8.180 6.941 6.961 6.973 6.699 6.738 6.773 6.695 6.828 7.051 7.082 8.195 7.082 7.078 7.074 8.195 8.195 7.660 8.195 8.195 8.195 8.195 7.691 7.598 7.539 7.504 7.492 7.488 7.496 7.508 7.527 7.562 7.598 7.652 7.727 7.840 8.195 8.195 8.195 8.195 8.195 8.195 8.195 8.195 8.195 8.195 8.195 8.195 8.195 8.195 8.094 8.102 8.195 8.195 8.195 8.195 8.195 8.195 8.195 8.195 8.195 8.195 8.180 8.195 8.195 8.195 8.195 8.195 8.195 8.195 8.195 8.195 8.195 8.195 8.195 8.195 8.195 8.195 8.195 8.195 8.195 8.195 8.195 8.195 8.195 8.195 8.195 8.195 8.195 8.195 8.180 8.195 8.195 8.195 8.195 8.195 8.195 8.195 8.195 8.195 8.195 8.195 8.195 8.195 8.195 8.195 8.195 8.195 8.195 8.195 8.195 8.195 8.195 8.195 8.195 8.195 8.195 8.195 8.180 8.195 8.195 8.195 8.195 8.195 8.195 8.195 8.195 8.195 8.195 8.195 8.195 7.859 7.734 7.613 7.496 7.383 7.270 7.164 7.059 6.957 6.855 6.762 6.668 6.621 6.621 6.621 6.621 6.621 6.621 6.621 8.195 8.195 8.195 8.195 8.195 8.195 8.195 8.195 8.195 8.195 8.195 8.195 8.195 8.195 8.164 8.078 8.000 7.918 7.836 7.758 7.680 7.605 7.531 7.457 7.387 7.316 7.246 7.180 7.113 7.051 6.984 6.922 6.859 6.801 6.742 6.684 6.625 6.570 6.516 6.461 6.406 6.352 6.301 6.250 6.199 6.148 6.102 6.055
6.523 6.863 6.020 6.047 6.070 6.098 5.910 5.945 5.984 5.930 5.949 7.574 6.195 6.211 6.234 6.453 6.016 6.039 6.066 6.043 6.512 6.461 6.488 6.238 6.344 6.699 6.734 8.406 8.406 8.406 8.406 8.406 8.406 8.406 8.406 8.406 8.406 8.406 8.406 6.281 6.328 6.707 6.695 6.496 6.598 6.688 6.715 6.738 8.406 8.406 8.406 7.234 7.250 8.406 8.406 8.406 8.406 6.672 6.715 6.637 6.668 6.711 6.789 6.797 6.828 6.820 6.969 7.055 7.090 7.043 6.902 6.895 6.891 8.406 8.406 7.660 8.406 7.738 7.754 8.406 7.691 7.598 7.539 7.504 7.492 7.488 7.496 7.508 7.527 7.562 7.598 7.652 7.727 7.840 8.406 8.406 8.406 8.406 8.406 8.406 8.406 8.406 8.406 8.406 8.406 8.406 8.406 8.406 8.406 8.406 8.406 8.406 8.406 8.406 8.406 8.406 8.406 8.406 8.406 8.406 8.391 8.406 8.406 8.406 8.406 8.406 8.406 8.406 8.406 8.406 8.406 8.406 8.406 8.406 8.406 8.406 8.406 8.406 8.406 8.406 8.406 8.406 8.406 8.406 8.406 8.406 8.406 8.391 8.391 8.406 8.406 8.406 8.406 8.406 8.406 8.406 8.406 8.406 8.406 8.406 8.406 8.406 8.406 8.406 8.406 8.406 8.406 8.406 8.406 8.406 8.406 8.406 8.406 8.406 8.406 8.391 8.406 8.406 8.406 8.406 8.406 8.406 8.406 8.406 8.406 8.406 8.406 8.406 8.406 7.859 7.734 7.613 7.496 7.383 7.270 7.164 7.059 6.957 6.855 6.762 6.668 6.621 6.621 6.621 6.621 6.621 6.621 6.621 8.406 8.406 8.406 8.406 8.406 8.406 8.406 8.406 8.406 8.406 8.406 8.406 8.344 8.258 8.164 8.078 8.000 7.918 7.836 7.758 7.680 7.605 7.531 7.457 7.387 7.316 7.246 7.180 7.113 7.051 6.984 6.922 6.859 6.801 6.742 6.684 6.625 6.570 6.516 6.461 6.406 6.352 6.301 6.250 6.199 6.148 6.102 6.055
6.523 6.863 6.926 6.047 5.758 5.793 5.832 5.875 5.957 6.012 6.145 6.160 6.180 6.078 6.215 6.098 6.043 6.066 6.090 6.078 6.188 6.488 6.512 6.535 6.238 6.727 8.633 8.633 8.633 8.633 8.633 8.633 8.633 8.633 8.633 8.633 8.633 6.598 6.617 8.633 6.395 6.430 6.715 6.457 6.543 6.695 6.727 6.750 8.633 6.742 6.738 8.633 8.633 8.633 8.633 8.633 8.633 7.426 6.773 6.816 6.852 6.883 7.137 6.895 6.715 8.633 8.633 7.152 7.078 6.848 6.836 8.633 8.633 8.633 7.691 7.660 8.633 8.633 8.633 7.691 7.691 7.598 7.539 7.504 7.492 7.488 7.496 7.508 7.527 7.562 7.598 7.652 7.727 7.840 8.633 8.633 8.633 8.633 8.633 8.633 8.633 8.633 8.633 8.633 8.633 8.633 8.633 8.633 8.633 8.633 8.633 8.633 8.633 8.633 8.633 8.633 8.633 8.633 8.633 8.633 8.633 8.633 8.633 8.633 8.633 8.633 8.633 8.633 8.633 8.633 8.633 8.633 8.633 8.633 8.633 8.633 8.633 8.633 8.633 8.633 8.633 8.633 8.633 8.633 8.633 8.633 8.633 8.633 8.633 8.633 8.633 8.633 8.633 8.633 8.633 8.633 8.633 8.633 8.633 8.633 8.633 8.633 8.633 8.633 8.633 8.633 8.633 8.633 8.633 8.633 8.633 8.633 8.633 8.633 8.633 8.633 8.633 8.633 8.633 8.633 8.633 8.633 8.633 8.633 8.633 8.633 8.633 8.633 8.633 7.859 7.734 7.613 7.496 7.383 7.270 7.164 7.059 6.957 6.855 6.762 6.668 6.621 6.621 6.621 6.621 6.621 6.621 6.621 6.773 6.773 6.773 6.773 6.773 6.773 6.773 6.773 6.773 6.773 6.773 6.773 6.773 6.773 6.773 6.773 6.773 6.773 6.773 6.773 6.773 6.773 6.773 6.773 6.773 6.773 6.773 6.773 6.773 6.773 6.773 6.773 6.773 6.773 6.742 6.684 6.625 6.570 6.516 6.461 6.406 6.352 6.301 6.250 6.199 6.148 6.102 6.055
5.824 5.852 5.875 5.711 5.734 5.770 5.805 5.840 5.879 5.934 6.047 6.148 6.156 6.184 6.188 5.852 6.062 6.090 6.113 6.105 6.086 6.398 6.535 6.559 6.582 6.441 6.457 8.867 8.867 8.867 8.867 8.867 8.867 8.867 8.867 8.867 6.379 6.383 6.406 6.441 8.867 6.480 6.508 6.785 6.520 6.703 6.730 6.703 6.578 6.574 8.867 8.867 8.867 8.867 8.867 8.867 8.867 8.867 8.867 8.867 7.203 6.824 6.566 6.727 6.742 8.867 6.730 6.914 6.746 7.020 7.133 7.062 7.172 8.867 8.867 7.625 7.641 8.867 8.867 8.867 7.691 7.598 7.539 7.504 7.492 7.488 7.496 7.508 7.527 7.562 7.598 7.652 7.727 7.840 8.867 8.867 8.867 8.867 8.867 8.867 8.867 8.867 8.867 8.867 8.867 8.867 8.867 8.867 8.867 8.867 8.867 8.867 8.867 8.867 8.867 8.867 8.867 8.867 8.867 8.867 8.867 8.867 8.867 8.867 8.867 8.867 8.867 8.867 8.867 8.867 8.867 8.867 8.867 8.867 8.867 8.867 8.867 8.867 8.867 8.867 8.867 8.867 8.867 8.867 8.867 8.867 8.867 8.867 8.867 8.867 8.867 8.867 8.867 8.867 8.867 8.867 8.867 8.867 8.867 8.867 8.867 8.867 8.867 8.867 8.867 8.867 8.867 8.867 8.867 8.867 8.867 8.867 8.867 8.867 8.867 8.867 8.867 8.867 8.867 8.867 8.867 8.867 8.867 8.867 8.867 8.867 8.867 8.867 8.867 7.859 7.734 7.613 7.496 7.383 7.270 7.164 7.059 6.957 6.855 6.762 6.668 6.621 6.621 6.621 6.621 6.621 6.621 6.621 6.766 6.766 6.766 6.766 6.766 6.766 6.766 6.766 6.766 6.766 6.766 6.766 6.766 6.766 6.762 6.742 6.746 6.742 6.766 6.766 6.766 6.766 6.766 6.766 6.766 6.766 6.766 6.766 6.766 6.766 6.766 6.766 6.766 6.766 6.742 6.684 6.625 6.570 6.516 6.461 6.406 6.352 6.301 6.250 6.199 6.148 6.102 6.055
6.523 5.891 5.914 5.938 5.758 5.793 5.824 5.859 5.898 5.883 5.934 5.988 5.840 7.711 7.719 7.770 5.887 5.969 6.133 6.129 6.113 6.457 6.453 6.348 6.359 6.262 6.223 6.242 9.062 6.613 6.613 6.629 9.117 9.117 9.117 9.117 6.461 6.496 6.527 6.555 6.785 6.781 6.699 7.121 9.117 6.758 6.539 6.527 6.523 9.117 9.117 9.117 9.117 9.117 6.758 6.777 9.117 9.117 9.117 6.750 6.742 6.746 6.609 6.621 6.762 6.730 9.117 6.684 6.699 6.781 7.164 7.195 7.223 7.246 7.266 7.660 9.117 9.117 9.117 9.117 7.691 7.598 7.539 7.504 7.492 7.488 7.496 7.508 7.527 7.562 7.598 7.652 7.727 7.840 9.117 9.117 9.117 9.117 9.117 9.117 9.117 9.117 9.109 9.117 9.117 9.117 9.117 9.117 9.117 9.117 9.117 9.117 9.117 9.117 9.117 9.117 9.117 9.117 9.117 9.117 9.117 9.117 9.117 9.117 9.117 9.117 9.117 9.117 9.117 9.117 9.117 9.117 9.117 9.117 9.117 9.117 9.117 9.117 9.117 9.117 9.117 9.117 9.117 9.117 9.117 9.117 9.117 9.117 9.117 9.117 9.117 9.117 9.117 9.102 9.117 9.117 9.117 9.117 9.117 9.117 9.117 9.117 9.117 9.117 9.117 9.117 9.117 9.117 9.117 9.117 9.117 9.117 9.117 9.117 9.117 9.117 9.117 9.117 9.117 9.117 9.117 9.117 9.117 9.117 9.117 9.117 9.117 9.117 9.117 7.859 7.734 7.613 7.496 7.383 7.270 7.164 7.059 6.957 6.855 6.762 6.668 6.621 6.621 6.621 6.621 6.621 6.621 6.621 6.824 6.824 6.824 6.824 6.824 6.824 6.824 6.824 6.824 6.824 6.824 6.824 6.789 6.770 6.789 6.789 6.789 6.789 6.762 6.824 6.824 6.824 6.824 6.824 6.824 6.824 6.824 6.824 6.824 6.824 6.824 6.824 6.824 6.801 6.742 6.684 6.625 6.570 6.516 6.461 6.406 6.352 6.301 6.250 6.199 6.148 6.102 6.055
6.523 6.047 6.055 6.070 6.086 6.016 6.121 6.047 5.914 5.953 5.980 6.023 6.059 6.066 7.719 7.770 5.906 5.988 6.148 6.148 5.895 5.930 6.012 6.012 6.184 6.188 6.203 6.461 6.477 6.484 6.488 6.469 9.383 7.078 7.090 9.383 9.383 9.383 9.383 6.277 6.523 6.422 6.676 6.820 9.383 6.438 9.383 6.742 6.773 6.801 6.773 9.383 9.383 9.383 9.383 6.758 6.777 6.801 9.383 9.383 7.172 9.383 6.645 6.656 6.781 6.770 6.875 9.383 6.672 7.086 7.094 7.098 7.098 9.383 9.383 7.660 9.383 9.383 9.383 9.383 7.691 7.598 7.539 7.504 7.492 7.488 7.496 7.508 7.527 7.562 7.598 7.652 7.727 7.840 9.383 9.383 9.383 9.383 9.383 9.383 9.383 9.383 9.383 9.383 9.383 9.383 9.383 9.383 9.383 9.383 9.383 9.383 9.383 9.383 9.383 9.383 9.383 9.383 9.383 9.383 9.383 9.383 9.383 9.383 9.383 9.383 9.383 9.383 9.227 9.148 9.180 9.383 9.383 9.383 9.383 9.383 9.383 9.383 9.383 9.383 9.383 9.383 9.383 9.383 9.383 9.383 9.383 9.383 9.383 9.383 9.383 9.383 9.383 9.383 9.383 9.383 9.383 9.383 9.383 9.383 9.383 9.383 9.383 9.383 9.383 9.383 9.383 9.383 9.383 9.383 9.383 9.383 9.383 9.383 9.383 9.383 9.383 9.383 9.383 9.383 9.383 9.383 9.383 9.383 9.383 9.383 9.383 9.383 9.383 7.859 7.734 7.613 7.496 7.383 7.270 7.164 7.059 6.957 6.855 6.762 6.668 6.621 6.621 6.621 6.621 6.621 6.621 6.621 6.828 6.828 6.828 6.828 6.828 6.828 6.828 6.828 6.828 6.828 6.828 6.828 6.828 6.770 6.828 6.828 6.828 6.793 6.762 6.828 6.828 6.828 6.828 6.828 6.828 6.828 6.828 6.828 6.828 6.828 6.828 6.828 6.828 6.801 6.742 6.684 6.625 6.570 6.516 6.461 6.406 6.352 6.301 6.250 6.199 6.148 6.102 6.055
5.805 5.828 5.863 5.895 5.863 5.887 5.816 5.844 5.875 5.910 5.941 5.980 7.656 5.965 6.066 7.770 7.871 5.996 6.098 6.027 6.066 6.090 6.082 6.066 6.043 6.164 6.566 6.480 6.488 6.496 6.500 6.508 6.512 6.457 6.484 9.945 9.656 6.438 6.430 6.316 6.328 6.445 6.461 7.121 9.664 6.391 6.438 6.633 6.699 6.828 6.852 6.875 6.891 9.664 9.664 9.664 6.762 6.785 6.809 6.906 7.082 6.785 6.676 6.688 6.668 6.801 6.945 6.977 6.988 6.594 6.855 7.129 7.129 7.066 9.664 7.047 7.074 9.664 9.664 9.664 7.691 7.598 7.539 7.504 7.492 7.488 7.496 7.508 7.527 7.562 7.598 7.652 7.727 7.840 9.656 9.656 9.656 9.656 9.656 9.656 9.656 9.656 9.656 9.656 9.656 9.656 9.656 9.656 9.656 9.656 9.656 9.656 9.656 9.656 9.664 9.664 9.664 9.664 9.664 9.664 9.664 9.664 9.664 9.664 9.664 9.664 9.664 9.664 9.664 9.664 9.664 9.664 9.664 9.664 9.664 9.664 9.664 9.664 9.664 9.664 9.664 9.664 9.664 9.664 9.664 9.664 9.664 9.664 9.664 9.664 9.664 9.664 9.664 9.664 9.664 9.664 9.664 9.664 9.664 9.664 9.664 9.664 9.664 9.664 9.664 9.664 9.664 9.664 9.664 9.664 9.664 9.664 9.664 9.664 9.664 9.664 9.664 9.664 9.664 9.664 9.664 9.664 9.664 9.664 9.664 9.664 9.664 9.664 9.656 7.859 7.734 7.613 7.496 7.383 7.270 7.164 7.059 6.957 6.855 6.762 6.668 6.621 6.621 6.621 6.621 6.621 6.621 6.621 9.586 9.469 9.352 9.242 9.133 9.023 8.922 8.820 8.719 8.625 8.531 8.438 8.344 6.770 8.164 8.078 8.000 6.793 6.762 7.758 7.680 7.605 7.531 7.457 7.387 7.316 7.246 7.180 7.113 7.051 6.984 6.922 6.859 6.801 6.742 6.684 6.625 6.570 6.516 6.461 6.406 6.352 6.301 6.250 6.199 6.148 6.102 6.055
5.820 5.855 5.895 5.926 5.957 5.988 6.016 6.043 6.066 6.090 5.902 5.938 5.875 5.902 5.934 6.000 6.504 6.449 6.121 8.141 6.129 6.117 6.125 6.113 6.766 8.734 6.258 6.316 6.484 6.488 6.488 6.492 6.496 6.504 6.457 6.477 6.516 10.227 6.402 6.652 6.359 6.336 6.477 6.422 6.562 6.879 11.727 6.742 6.750 6.754 6.719 12.773 9.953 9.953 9.961 6.633 6.660 6.492 6.594 6.398 6.445 6.500 6.945 6.715 6.723 6.820 6.742 7.020 6.578 6.801 6.973 7.352 6.871 6.855 6.809 7.086 7.441 9.961 9.961 9.961 7.691 7.598 7.539 7.504 7.492 7.488 7.496 7.508 7.527 7.562 7.598 7.652 7.727 7.840 9.961 9.961 9.961 9.961 9.961 9.961 9.961 9.961 9.961 9.961 9.961 9.961 9.961 9.961 9.961 9.961 9.961 9.961 9.961 9.961 9.961 9.961 9.961 9.961 9.961 9.961 9.961 9.961 9.961 9.961 9.961 9.961 9.961 9.961 9.961 9.961 9.961 9.961 9.961 9.961 9.961 9.961 9.961 9.961 9.961 9.961 9.961 9.961 9.961 9.961 9.961 9.961 9.961 9.961 9.961 9.961 9.961 9.961 9.961 9.961 9.961 9.961 9.961 9.961 9.961 9.961 9.961 9.961 9.961 9.961 9.961 9.961 9.961 9.961 9.961 9.961 9.961 9.961 9.961 9.961 9.961 9.961 9.961 9.961 9.961 9.961 9.961 9.961 9.953 9.953 13.664 13.422 13.195 12.977 12.758 7.859 7.734 7.613 7.496 7.383 7.270 7.164 7.059 6.957 6.855 6.762 6.668 6.621 6.621 6.621 6.621 6.621 6.621 6.621 9.586 9.469 9.352 9.242 9.133 9.023 8.922 8.820 8.719 8.625 8.531 8.438 8.344 6.770 8.164 8.078 8.000 6.793 6.762 7.758 7.680 7.605 7.531 7.457 7.387 7.316 7.246 7.180 7.113 7.051 6.984 6.922 6.859 6.801 6.742 6.684 6.625 6.570 6.516 6.461 6.406 6.352 6.301 6.250 6.199 6.148 6.102 6.055
6.523 5.852 5.891 5.926 5.957 5.996 6.027 6.055 6.086 6.160 6.172 6.250 5.844 5.875 5.906 5.965 6.055 6.289 6.254 8.141 6.414 6.445 6.453 8.523 6.793 6.910 6.223 6.262 6.719 6.746 6.754 6.734 6.363 6.379 6.402 6.465 6.484 6.508 6.602 6.500 6.387 6.398 6.488 6.457 6.930 6.309 6.668 6.516 6.617 6.781 6.785 6.672 6.695 6.723 6.715 6.641 6.664 6.633 6.680 6.723 6.605 6.516 6.438 6.480 6.520 6.512 7.004 6.582 6.754 6.961 7.062 7.379 6.895 6.852 6.797 7.422 10.273 10.273 10.273 10.273 7.691 7.598 7.539 7.504 7.492 7.488 7.496 7.508 7.527 7.562 7.598 7.652 7.727 7.840 10.273 10.273 10.273 10.273 10.273 10.273 10.273 10.273 10.273 10.273 10.273 10.273 10.273 10.273 10.273 10.273 10.273 10.273 10.273 10.273 10.273 10.273 10.273 10.273 10.273 10.273 10.273 10.273 10.273 10.273 10.273 10.273 10.273 10.273 10.273 10.273 10.273 10.273 10.273 10.273 10.273 10.273 10.273 10.273 10.273 10.273 10.273 10.273 10.273 10.273 10.273 10.273 10.273 10.273 10.273 10.273 10.273 10.273 10.273 10.273 10.273 10.273 10.273 10.273 10.273 10.273 10.273 10.273 10.266 10.273 18.484 18.484 18.484 18.484 18.484 18.156 17.734 17.328 16.953 16.562 16.203 16.156 16.109 16.156 16.016 15.930 15.875 14.406 14.164 13.906 13.664 13.422 13.195 12.977 12.758 7.859 7.734 7.613 7.496 7.383 7.270 7.164 7.059 6.957 6.855 6.762 6.668 6.621 6.621 6.621 6.621 6.621 6.621 6.621 9.586 9.469 9.352 9.242 9.133 9.023 8.922 8.820 8.719 8.625 8.531 8.438 8.344 6.770 8.164 8.078 8.000 6.793 6.762 7.758 7.680 7.605 7.531 7.457 7.387 7.316 7.246 7.180 7.113 7.051 6.984 6.922 6.859 6.801 6.742 6.684 6.625 6.570 6.516 6.461 6.406 6.352 6.301 6.250 6.199 6.148 6.102 6.055
6.523 6.574 6.590 6.992 7.062 6.270 6.117 6.145 6.164 6.188 6.203 6.289 6.289 5.855 5.898 5.957 6.309 6.523 6.395 6.352 6.305 6.469 6.473 8.523 6.820 6.969 6.742 6.230 6.320 6.609 6.801 6.809 6.320 6.328 6.164 6.230 6.289 6.184 6.227 6.270 6.141 6.180 6.363 6.484 6.316 6.273 6.465 6.613 6.680 6.742 6.543 6.492 6.723 6.758 6.883 6.898 6.688 6.715 6.742 6.762 6.797 7.109 6.578 6.574 6.609 6.613 6.531 6.750 6.941 6.637 6.664 6.758 7.004 6.832 7.113 7.660 18.406 18.484 18.484 18.484 7.691 7.598 7.539 7.504 7.492 7.488 7.496 7.508 7.527 7.562 7.598 7.652 7.727 7.840 10.609 10.609 10.609 10.609 10.609 10.609 10.609 10.609 10.609 10.609 10.609 10.609 10.609 10.609 10.609 10.609 10.609 10.609 10.609 10.609 10.609 10.609 10.609 10.609 10.609 10.609 10.609 10.609 10.609 10.609 10.609 10.609 10.609 10.609 10.609 10.609 10.609 10.609 10.609 10.609 10.609 10.609 10.609 10.609 10.609 10.609 10.609 10.609 10.602 18.484 18.484 18.484 18.484 18.484 18.484 18.484 18.484 18.484 18.484 18.484 18.484 18.484 18.484 18.484 18.484 18.484 18.484 18.484 18.484 18.484 18.484 18.484 18.484 18.484 18.484 18.156 17.734 17.328 16.938 16.562 16.203 16.156 16.109 16.156 16.016 15.930 14.703 14.430 14.164 13.906 13.664 13.422 13.195 12.977 12.758 7.859 7.734 7.613 7.496 7.383 7.270 7.164 7.059 6.957 6.855 6.762 6.668 6.621 6.621 6.621 6.621 6.621 6.621 6.621 9.586 9.469 9.352 9.242 9.133 9.023 8.922 8.820 8.719 8.625 8.516 8.430 8.430 6.770 8.164 8.078 8.000 6.793 6.762 7.758 7.680 7.605 7.531 7.457 7.387 7.316 7.246 7.180 7.113 7.051 6.984 6.922 6.859 6.801 6.742 6.684 6.625 6.570 6.516 6.461 6.406 6.352 6.301 6.250 6.199 6.148 6.102 6.055
6.523 6.863 6.926 6.992 6.016 6.105 6.137 6.164 6.188 6.301 6.312 6.316 6.566 6.598 6.344 6.328 6.352 6.332 6.434 6.469 6.383 6.312 8.422 6.277 6.301 6.340 6.391 6.816 6.867 6.562 6.633 6.840 6.328 6.535 6.375 6.398 6.406 6.438 6.234 6.281 6.250 6.277 6.438 6.305 6.410 6.438 6.383 6.410 6.746 6.934 6.531 6.855 6.957 7.012 13.492 6.652 6.660 6.672 6.688 6.574 6.590 6.629 6.586 6.652 16.203 16.578 6.629 17.391 17.844 6.598 6.621 6.695 6.824 6.996 7.160 7.168 7.176 18.484 18.484 18.484 7.691 7.598 7.539 7.504 7.492 7.488 7.496 7.508 7.527 7.562 7.598 7.652 7.727 7.840 18.484 18.484 18.438 18.484 18.484 18.484 18.484 10.961 10.969 10.969 10.969 10.969 10.969 10.969 10.969 10.969 10.969 10.969 10.969 10.969 10.969 10.969 10.969 10.969 10.969 10.969 10.969 10.969 10.969 18.484 18.484 18.484 18.484 18.484 18.484 18.484 18.484 18.484 18.484 18.484 18.484 18.484 18.484 18.484 18.484 18.484 18.484 18.484 18.406 18.484 18.484 18.484 18.484 18.484 18.484 18.484 18.484 18.484 18.484 18.484 18.484 18.484 18.484 18.484 18.484 18.484 18.484 18.484 18.484 18.484 18.484 18.484 18.484 18.484 18.484 18.156 17.734 17.328 16.938 16.562 16.234 16.156 16.109 16.156 15.289 14.992 14.703 14.430 14.164 13.906 13.664 13.422 13.195 12.977 12.758 7.859 7.734 7.613 7.496 7.383 7.270 7.164 7.059 6.957 6.855 6.762 6.668 6.621 6.621 6.621 6.621 6.621 6.621 6.621 9.586 9.469 9.352 9.242 9.133 9.023 8.922 8.805 8.711 8.711 10.969 10.969 10.969 6.770 8.164 8.078 8.000 6.793 6.762 7.758 7.680 7.605 7.531 7.457 7.387 7.316 7.246 7.180 7.113 7.051 6.984 6.922 6.859 6.801 6.742 6.684 6.625 6.570 6.516 6.461 6.406 6.352 6.301 6.250 6.199 6.148 6.102 6.055
6.523 6.863 6.926 6.043 6.090 6.125 6.160 6.297 6.211 6.324 6.336 7.574 6.582 6.613 6.344 6.512 6.383 6.387 6.469 6.480 6.492 6.406 6.395 6.430 6.762 6.457 6.320 6.375 6.465 6.941 6.949 6.664 6.867 9.672 6.387 6.398 6.316 6.328 6.344 6.285 6.332 6.340 6.949 6.418 6.445 11.539 6.328 6.352 6.426 12.336 6.742 6.773 6.785 6.797 6.746 6.852 6.875 6.891 6.523 6.535 6.559 6.602 6.664 6.730 16.203 6.855 6.902 7.301 7.047 6.570 6.609 10.172 18.484 7.355 6.973 7.023 7.211 7.207 7.113 18.484 7.691 7.598 7.539 7.504 7.492 7.488 7.496 7.508 7.527 7.562 7.598 7.652 7.727 7.840 18.484 18.484 18.438 18.484 18.484 18.484 18.484 18.484 18.484 18.484 18.484 16.000 15.867 15.828 15.836 15.883 15.984 18.484 18.484 18.484 18.484 18.484 18.484 18.484 18.484 18.484 18.484 18.484 18.484 18.484 18.484 18.484 18.484 18.484 18.484 18.484 18.484 18.484 18.484 18.484 18.484 18.484 18.484 18.484 18.484 18.484 18.484 18.484 18.406 18.484 18.484 18.484 18.484 18.484 18.484 18.484 18.484 18.484 18.484 18.484 18.484 18.484 18.484 18.484 18.484 18.484 18.484 18.484 18.484 18.484 18.484 18.484 18.484 18.484 18.484 18.156 17.734 17.328 16.938 16.562 16.203 16.156 15.891 15.594 15.289 14.992 14.703 14.430 14.164 13.906 13.664 13.422 13.195 12.977 12.758 7.859 7.734 7.613 7.496 7.383 7.270 7.164 7.059 6.957 6.855 6.762 6.668 6.621 6.621 6.621 6.621 6.621 6.621 6.621 9.586 9.469 9.352 9.242 9.117 9.023 9.023 11.359 11.359 11.359 11.359 11.359 11.359 6.770 8.164 8.078 8.000 6.793 6.762 7.758 7.680 7.605 7.531 7.457 7.387 7.316 7.246 7.180 7.113 7.051 6.984 6.922 6.859 6.801 6.742 6.684 6.625 6.570 6.516 6.461 6.406 6.352 6.301 6.250 6.199 6.148 6.102 6.055
6.523 6.863 6.926 6.066 6.109 7.129 6.297 6.316 6.328 6.469 6.488 6.496 6.477 6.441 6.344 7.770 6.410 6.406 6.480 6.492 6.504 6.512 6.410 6.426 6.809 6.840 6.812 6.840 6.516 6.438 6.996 6.812 6.816 6.504 6.473 6.348 6.266 6.270 6.301 6.352 6.336 6.844 7.102 6.586 6.934 6.906 6.301 6.348 12.125 6.473 12.547 6.637 6.672 6.816 6.840 6.875 6.895 6.918 6.938 6.516 6.555 7.027 7.113 16.188 7.008 7.012 6.812 6.867 6.766 6.758 6.785 6.816 7.453 7.461 7.277 6.977 7.031 7.352 7.219 18.484 7.691 7.598 7.539 7.504 7.492 7.488 7.496 7.508 7.527 7.562 7.598 7.652 7.727 7.840 18.484 18.484 18.438 18.484 18.484 18.484 18.484 18.484 18.484 18.484 18.484 16.000 15.867 15.828 15.836 15.883 15.984 18.484 18.484 18.484 18.484 18.484 18.484 18.484 18.484 18.484 18.484 18.484 18.484 18.484 18.484 18.484 18.484 18.484 18.484 18.484 18.484 18.484 18.484 18.484 18.484 18.484 18.484 18.484 18.484 18.484 18.484 18.484 18.406 18.484 18.484 18.484 18.484 18.484 18.484 18.484 18.484 18.484 18.484 18.484 18.484 18.484 18.484 18.484 18.484 18.484 18.484 18.484 18.484 18.484 18.484 18.484 18.484 18.484 18.484 18.156 17.734 17.328 16.938 16.562 16.203 16.156 15.914 15.594 15.289 14.992 14.703 14.430 14.164 13.906 13.664 13.422 13.195 12.977 12.758 7.859 7.734 7.613 7.496 7.383 7.270 7.164 7.059 6.957 6.855 6.762 6.668 6.621 6.621 6.621 6.621 6.621 6.621 6.621 9.586 9.453 9.352 9.352 11.766 11.766 11.766 11.766 11.766 11.766 11.766 11.766 11.766 6.770 8.164 8.078 8.000 6.793 6.762 7.758 7.680 7.605 7.531 7.457 7.387 7.316 7.246 7.180 7.113 7.051 6.984 6.922 6.859 6.801 6.742 6.684 6.625 6.570 6.516 6.461 6.406 6.352 6.301 6.250 6.199 6.148 6.102 6.055
6.523 6.863 6.926 6.992 7.062 7.129 7.199 7.273 7.348 7.422 7.496 6.504 6.512 6.508 6.344 6.242 6.305 6.199 6.637 6.641 8.234 6.594 8.422 6.406 6.840 6.875 6.875 8.953 9.062 6.555 6.562 6.484 6.512 6.535 6.555 6.574 6.230 6.262 6.297 6.684 6.379 6.852 6.648 6.770 6.527 6.570 6.465 6.488 6.398 12.336 7.031 7.043 6.891 6.676 6.730 6.961 6.895 14.297 6.953 6.973 7.070 7.074 7.191 7.152 7.340 6.801 7.004 7.121 6.988 7.109 7.066 6.738 6.777 6.859 7.293 7.328 7.363 7.055 7.414 7.375 7.691 7.598 7.539 7.504 7.492 7.488 7.496 7.508 7.527 7.562 7.598 7.652 7.727 7.840 18.484 18.484 18.438 18.484 18.484 18.484 18.484 18.484 18.484 18.484 18.484 16.000 15.867 15.828 15.836 15.883 15.984 18.484 18.484 18.484 18.484 18.484 18.484 18.484 18.484 18.484 18.484 18.484 18.484 18.484 18.484 18.484 18.484 18.484 18.484 18.484 18.484 18.484 18.484 18.484 18.484 18.484 18.484 18.484 18.484 18.484 18.484 18.484 18.406 18.484 18.484 18.484 18.484 18.484 18.484 18.484 18.484 18.484 18.484 18.484 18.484 18.484 18.484 18.484 18.484 18.484 18.484 18.484 18.484 18.484 18.484 18.484 18.484 18.484 18.484 18.156 17.734 17.328 16.938 16.562 16.203 16.156 15.914 15.594 15.289 14.984 14.703 14.430 14.164 13.906 13.664 13.422 13.195 12.977 12.758 7.859 7.734 7.613 7.496 7.383 7.270 7.164 7.059 6.957 6.855 6.762 6.668 6.621 6.621 6.621 6.621 6.621 6.621 6.621 9.703 12.211 12.211 12.211 12.211 12.211 12.211 12.211 12.211 12.211 12.211 12.211 12.211 6.770 8.164 8.078 8.000 6.793 6.762 7.758 7.680 7.605 7.531 7.457 7.387 7.316 7.246 7.180 7.113 7.051 6.984 6.922 6.859 6.801 6.742 6.684 6.625 6.570 6.516 6.461 6.406 6.352 6.301 6.250 6.199 6.148 6.102 6.055
6.523 6.863 6.926 6.992 7.062 7.129 7.199 7.273 7.348 7.422 7.496 7.574 7.656 6.531 6.340 7.770 7.871 6.297 8.047 6.547 6.578 6.609 6.641 6.426 6.703 6.734 6.738 8.953 9.062 9.180 9.297 9.422 9.547 6.531 6.555 6.574 6.602 6.621 6.711 6.719 6.797 6.820 7.102 6.711 6.676 6.898 6.582 6.418 6.445 6.484 7.098 6.945 13.008 6.938 6.684 6.762 7.031 6.988 7.062 7.090 7.102 7.109 7.234 7.207 16.203 6.801 7.004 7.156 7.164 6.926 7.301 10.172 7.383 6.930 6.898 7.660 18.406 18.406 7.188 18.406 7.691 7.598 7.539 7.504 7.492 7.488 7.496 7.508 7.527 7.562 7.598 7.652 7.727 7.840 18.406 18.406 18.406 18.406 18.406 18.406 18.406 18.406 18.406 18.406 18.406 16.000 15.867 15.828 15.836 15.883 15.984 18.406 18.406 18.406 18.406 18.406 18.406 18.406 18.406 18.406 18.406 18.406 18.406 18.406 18.406 18.406 18.406 18.406 18.406 18.406 18.406 18.406 18.406 18.406 18.406 18.406 18.406 18.406 18.406 18.406 18.406 18.406 18.406 18.406 18.406 18.406 18.406 18.406 18.406 18.406 18.406 18.406 18.406 18.406 18.406 18.406 18.406 18.406 18.406 18.406 18.406 18.406 18.406 18.406 18.406 18.406 18.406 18.406 18.406 18.156 17.734 17.328 16.938 16.562 16.203 16.156 15.914 15.594 15.281 14.984 14.703 14.430 14.164 13.906 13.664 13.422 13.195 12.977 12.758 7.859 7.734 7.613 7.496 7.383 7.270 7.164 7.059 6.957 6.855 6.762 6.668 6.621 6.621 6.621 6.621 6.621 6.621 6.621 12.695 12.695 12.695 12.695 12.695 12.695 12.695 12.695 12.695 12.695 12.695 12.695 12.695 6.770 8.164 8.078 8.000 6.793 6.762 7.758 7.680 7.605 7.531 7.457 7.387 7.316 7.246 7.180 7.113 7.051 6.984 6.922 6.859 6.801 6.742 6.684 6.625 6.570 6.516 6.461 6.406 6.352 6.301 6.250 6.199 6.148 6.102 6.055
6.523 6.863 6.926 6.992 7.062 7.129 7.199 6.195 6.223 6.250 6.273 6.305 6.340 6.578 6.340 7.770 7.871 7.961 6.660 8.141 8.234 6.625 6.652 6.426 6.715 6.746 6.773 8.953 9.062 9.180 9.297 9.422 9.547 9.672 9.805 9.945 6.648 6.715 6.738 6.746 6.754 6.867 6.836 7.121 6.762 7.066 6.809 6.785 6.996 12.336 6.469 6.543 7.012 7.367 7.383 6.727 9.820 7.055 7.090 7.363 7.133 7.285 7.270 6.730 6.883 6.801 7.004 7.344 10.078 7.148 7.328 10.141 10.164 7.430 7.449 7.445 18.406 18.484 18.484 18.484 7.691 7.598 7.539 7.504 7.492 7.488 7.496 7.508 7.527 7.562 7.598 7.652 7.727 7.840 18.484 18.484 18.438 18.484 18.484 18.484 18.484 18.484 18.484 18.484 18.484 16.000 15.867 15.828 15.836 15.883 15.984 18.484 16.141 16.141 16.141 16.141 16.141 16.141 16.141 16.141 16.141 16.141 16.141 16.141 16.141 16.141 16.141 16.141 16.141 16.141 16.141 16.141 16.141 16.141 16.141 16.141 16.141 16.141 16.141 16.141 16.141 16.141 16.141 16.141 16.141 16.141 16.141 16.141 16.141 16.141 16.141 16.141 16.141 16.141 16.141 16.141 16.141 16.141 16.141 16.141 16.141 18.484 18.484 18.484 18.484 18.484 18.484 18.484 18.484 18.156 17.734 17.328 16.938 16.562 16.203 16.156 15.914 15.594 15.281 14.984 14.703 14.430 14.164 13.906 13.664 13.422 13.195 12.977 12.758 7.859 7.734 7.613 7.496 7.383 7.270 7.164 7.059 6.957 6.855 6.762 6.668 6.621 6.621 6.621 6.621 6.621 6.621 6.621 13.211 13.211 13.211 13.211 13.211 13.211 13.211 13.211 13.211 13.211 13.211 13.211 13.211 6.770 8.164 8.078 8.000 6.793 6.762 7.758 7.680 7.605 7.531 7.457 7.387 7.316 7.246 7.180 7.113 7.051 6.984 6.922 6.859 6.801 6.742 6.684 6.625 6.570 6.516 6.461 6.406 6.352 6.301 6.250 6.199 6.148 6.102 6.055
6.523 6.863 6.926 6.992 7.062 7.129 6.125 6.156 6.293 6.336 6.582 6.594 6.605 6.613 6.340 6.605 6.574 6.648 6.727 6.770 6.742 8.328 6.535 6.430 8.625 6.941 8.844 8.953 9.062 9.180 9.297 9.422 9.547 9.672 9.805 9.945 6.707 6.734 10.375 6.773 6.906 6.902 6.543 7.121 6.902 6.777 7.117 11.922 6.996 12.336 12.547 12.773 7.039 7.062 13.492 13.750 14.023 14.297 14.594 7.141 15.211 15.539 15.883 16.188 16.203 6.801 7.004 10.125 10.125 7.227 7.242 7.258 7.266 7.281 7.289 7.504 7.723 10.281 7.676 7.691 7.691 7.598 7.539 7.504 7.492 7.488 7.496 7.508 7.527 7.562 7.598 7.652 7.727 7.840 18.484 18.484 18.438 18.484 18.484 18.484 18.484 18.484 18.484 18.484 18.484 16.000 15.867 15.828 15.836 15.883 15.984 16.172 16.141 16.141 16.141 16.141 16.141 16.141 16.141 16.141 16.141 16.141 16.141 16.141 16.141 16.141 16.141 16.141 16.141 16.141 16.141 16.141 16.141 16.141 16.141 16.141 16.141 16.141 16.141 16.141 16.141 16.141 16.141 16.141 16.141 16.141 16.141 16.141 16.141 16.141 16.141 16.141 16.141 16.141 16.141 16.141 16.141 16.141 16.141 16.141 16.141 18.484 18.484 18.484 18.484 18.484 18.484 18.484 18.484 18.156 17.734 17.328 16.938 16.562 16.203 16.156 15.914 15.594 15.281 14.984 14.703 14.430 14.164 13.906 13.664 13.422 13.195 12.977 12.758 7.859 7.734 7.613 7.496 7.383 7.270 7.164 7.059 6.957 6.855 6.762 6.668 6.621 6.621 6.621 6.621 6.621 6.621 6.621 13.773 13.773 13.773 13.773 13.773 13.773 13.773 13.773 13.773 13.773 13.773 13.773 13.773 6.770 8.164 8.078 8.000 6.793 6.762 7.758 7.680 7.605 7.531 7.457 7.387 7.316 7.246 7.180 7.113 7.051 6.984 6.922 6.859 6.801 6.742 6.684 6.625 6.570 6.516 6.461 6.406 6.352 6.301 6.250 6.199 6.148 6.102 6.055
6.523 6.863 6.926 6.992 7.062 7.129 7.199 7.273 7.348 7.422 6.758 6.773 6.785 6.801 6.180 6.605 6.629 6.699 6.781 6.797 6.809 8.328 6.531 6.434 8.625 8.734 8.844 8.953 9.062 9.180 9.297 9.422 9.547 9.672 9.805 9.945 10.086 10.227 6.777 10.523 10.680 6.566 6.918 7.121 11.359 11.539 11.727 6.617 6.871 6.883 6.891 6.902 6.914 7.090 13.492 13.750 14.023 14.297 14.594 14.891 15.211 15.539 15.883 16.188 16.203 6.801 7.004 17.391 17.844 18.312 7.266 7.277 7.281 18.484 18.484 7.535 18.406 18.484 18.484 18.484 7.691 7.598 7.539 7.504 7.492 7.488 7.496 7.508 7.527 7.562 7.598 7.652 7.727 7.840 18.484 18.484 18.438 18.484 18.484 18.484 18.484 18.484 18.484 18.484 18.484 16.000 15.867 15.828 15.836 15.883 15.984 16.172 16.141 16.141 16.141 16.141 16.141 16.141 16.141 16.141 16.141 16.141 16.141 16.141 16.141 16.141 16.141 16.141 16.141 16.141 16.141 16.141 16.141 16.141 16.141 16.141 16.141 16.141 16.141 16.141 16.141 16.141 16.141 16.141 16.141 16.141 16.141 16.141 16.141 16.141 16.141 16.141 16.141 16.141 16.141 16.141 16.141 16.141 16.141 16.141 16.141 18.484 18.484 18.484 18.484 18.484 18.484 18.484 18.484 18.156 17.734 17.328 16.938 16.562 16.203 16.156 15.914 15.594 15.281 14.984 14.703 14.430 14.164 13.906 13.664 13.422 13.195 12.977 12.758 7.859 7.734 7.613 7.496 7.383 7.270 7.164 7.059 6.957 6.855 6.762 6.668 6.621 6.621 6.621 6.621 6.621 6.621 6.621 14.383 14.383 14.383 14.383 14.383 14.383 14.383 14.383 14.383 14.383 14.383 14.383 14.383 6.770 8.164 8.078 8.000 6.793 6.762 7.758 7.680 7.605 7.531 7.457 7.387 7.316 7.246 7.180 7.113 7.051 6.984 6.922 6.859 6.801 6.742 6.684 6.625 6.570 6.516 6.461 6.406 6.352 6.301 6.250 6.199 6.148 6.102 6.055
6.523 6.863 6.926 6.992 7.062 7.129 7.199 7.273 7.348 7.422 7.496 7.574 7.656 7.711 6.180 6.641 6.449 7.961 8.047 6.867 8.234 8.328 6.527 8.523 8.625 8.734 8.844 8.953 9.062 9.180 9.297 9.422 9.547 7.078 7.090 7.105 7.121 10.227 10.375 10.523 7.074 7.086 7.098 7.113 11.359 7.047 11.727 6.617 12.125 6.902 6.910 12.773 13.008 13.242 13.492 13.750 14.023 14.297 14.594 14.891 15.211 7.156 7.152 7.156 16.203 6.801 7.004 17.391 17.844 7.418 7.320 18.203 18.203 18.203 18.203 7.660 18.203 18.203 18.203 18.203 7.691 7.598 7.539 7.504 7.492 7.488 7.496 7.508 7.527 7.562 7.598 7.652 7.727 7.840 10.047 10.039 10.031 10.023 10.008 10.000 10.055 18.203 18.203 18.203 18.203 16.000 15.867 15.828 15.836 15.883 15.984 18.203 18.203 18.203 18.203 15.781 15.781 15.781 15.781 15.781 15.781 15.781 15.781 15.781 15.781 15.781 15.781 15.781 15.781 15.781 15.781 15.781 15.781 15.781 15.781 15.781 15.781 15.781 15.781 15.781 15.781 15.781 15.781 15.781 15.781 15.781 15.781 15.781 15.781 15.781 15.781 15.781 15.781 15.781 15.781 15.781 15.781 15.781 15.781 15.781 16.125 18.203 18.203 18.203 18.203 18.203 18.203 18.203 18.203 18.156 17.734 17.328 16.938 16.562 16.203 16.156 15.914 15.594 15.281 14.992 14.703 14.430 14.164 13.906 13.664 13.422 13.195 12.977 12.758 7.859 7.734 7.613 7.496 7.383 7.270 7.164 7.059 6.957 6.855 6.762 6.668 6.621 6.621 6.621 6.621 6.621 6.621 6.621 15.055 15.055 15.055 15.055 15.055 15.055 15.055 15.055 15.055 15.055 15.055 15.055 15.055 6.770 8.164 8.078 8.000 6.793 6.762 7.758 7.680 7.605 7.531 7.457 7.387 7.316 7.246 7.180 7.113 7.051 6.984 6.922 6.859 6.801 6.742 6.684 6.625 6.570 6.516 6.461 6.406 6.352 6.301 6.250 6.199 6.148 6.102 6.055
6.523 6.863 6.926 6.992 7.062 7.129 7.199 7.273 7.348 7.422 7.496 7.574 7.656 7.711 6.180 6.664 6.441 7.961 8.047 8.141 8.234 8.328 6.527 8.523 8.625 8.734 8.844 8.953 9.062 9.180 9.297 9.422 9.547 9.672 9.805 9.945 10.086 10.227 10.375 6.773 6.781 6.586 6.883 7.121 7.070 6.844 7.098 6.613 7.035 7.082 7.133 12.844 13.008 13.242 13.492 13.750 14.023 14.297 14.594 14.891 7.176 7.223 7.258 16.188 16.203 6.805 7.000 7.379 7.410 7.465 7.125 7.602 7.551 18.203 18.203 7.660 18.203 10.211 10.203 10.195 7.691 7.598 7.539 7.504 7.492 7.488 7.496 7.508 7.527 7.562 7.598 7.652 7.727 7.840 10.047 10.039 10.031 10.023 10.008 10.000 10.055 18.203 18.203 18.203 18.203 16.000 15.867 15.828 15.836 15.883 15.984 18.203 18.203 18.203 15.688 15.688 15.688 15.688 15.688 15.688 15.688 15.688 15.688 15.688 15.688 15.688 15.688 15.688 15.688 15.688 15.688 15.688 15.688 15.688 15.688 15.688 15.688 15.688 15.688 15.688 15.688 15.688 15.688 15.688 15.688 15.688 15.688 15.688 15.688 15.688 15.688 15.688 15.688 15.688 15.688 15.688 15.688 15.688 15.688 15.688 15.688 18.203 18.203 18.203 18.203 18.203 18.203 18.203 18.203 18.156 17.734 17.328 16.938 16.562 16.203 16.156 15.914 15.594 15.289 14.992 14.703 14.430 14.164 13.906 13.664 13.422 13.195 12.977 12.742 7.859 7.734 7.613 7.496 7.383 7.270 7.164 7.059 6.957 6.855 6.762 6.668 6.621 6.621 6.621 6.621 6.621 6.621 6.621 15.789 15.789 15.789 15.789 15.789 15.789 15.789 15.789 15.789 15.703 15.531 15.359 15.195 6.770 8.164 8.078 8.000 6.793 6.762 7.758 7.680 7.605 7.531 7.457 7.387 7.316 7.246 7.180 7.113 7.051 6.984 6.922 6.859 6.801 6.742 6.684 6.625 6.570 6.516 6.461 6.406 6.352 6.301 6.250 6.199 6.148 6.102 6.055
6.523 6.863 6.926 6.992 7.062 7.129 7.199 7.273 7.348 7.422 7.496 7.574 7.656 7.711 6.176 6.352 6.434 7.961 8.047 8.141 8.234 8.328 6.527 8.523 8.625 8.734 8.844 8.953 9.062 9.180 9.297 9.422 9.547 9.672 9.805 9.945 10.086 10.227 10.375 6.816 6.859 6.578 7.102 7.121 11.359 6.836 6.996 6.613 7.070 7.121 7.176 7.203 13.500 13.500 13.516 13.750 14.023 14.297 14.594 14.891 15.211 15.539 15.883 16.188 16.203 6.809 7.000 7.418 7.465 6.945 7.113 18.141 18.141 18.141 18.141 7.660 18.141 18.141 18.141 18.141 7.691 7.598 7.539 7.504 7.492 7.488 7.496 7.508 7.527 7.562 7.598 7.652 7.727 7.840 18.141 18.141 18.141 18.141 18.141 18.141 18.141 18.141 18.141 18.141 18.141 16.000 15.867 15.828 15.836 15.883 15.984 18.141 18.141 18.141 16.172 16.172 17.594 18.141 18.141 18.141 18.141 18.141 18.141 18.141 18.141 18.141 18.141 18.141 18.141 15.703 18.141 18.141 18.141 18.141 18.141 18.141 18.141 18.141 18.141 18.141 18.141 18.141 18.141 18.141 18.141 18.141 18.141 18.141 18.141 18.141 18.141 18.141 15.789 18.141 18.141 17.953 15.867 16.578 16.172 16.172 15.703 18.141 18.141 18.141 18.141 18.141 18.141 18.141 18.141 18.156 17.734 17.328 16.938 16.562 16.203 16.156 15.914 15.594 15.289 14.992 14.703 14.430 14.164 13.906 13.664 13.406 13.180 12.953 12.742 7.859 7.734 7.613 7.496 7.383 7.270 7.164 7.059 6.957 6.855 6.762 6.668 6.621 6.621 6.621 6.621 6.621 6.621 6.621 16.531 16.531 16.531 16.531 16.531 16.438 16.250 16.062 15.883 15.703 15.531 15.359 6.848 6.770 8.164 8.078 6.875 6.793 6.762 7.758 7.680 7.605 7.531 7.457 7.387 7.316 7.246 7.180 7.113 7.051 6.984 6.922 6.859 6.801 6.742 6.684 6.625 6.570 6.516 6.461 6.406 6.352 6.301 6.250 6.199 6.148 6.102 6.055
6.523 6.863 6.926 6.992 7.062 7.129 7.199 7.273 7.348 7.422 7.496 7.574 7.656 7.711 6.184 6.344 6.426 7.961 8.047 8.141 8.234 8.328 6.527 8.523 8.625 8.734 8.844 8.953 9.062 9.180 9.297 9.422 9.547 9.672 9.805 9.945 10.086 10.227 10.375 10.523 10.680 6.578 7.102 7.121 11.359 6.828 7.020 6.617 12.125 12.336 12.547 14.234 7.355 7.367 7.383 7.398 7.414 14.297 14.594 7.363 7.375 7.391 7.410 6.914 16.203 6.812 7.000 7.449 7.508 6.945 7.113 18.484 18.484 18.484 18.484 7.660 18.406 18.484 18.484 18.484 7.691 7.598 7.539 7.504 7.492 7.488 7.496 7.508 7.527 7.562 7.598 7.652 7.727 7.840 18.484 18.484 18.438 18.484 18.484 18.484 18.484 18.484 18.484 18.484 18.484 16.000 15.867 15.828 15.836 15.883 15.984 18.484 18.484 18.484 18.484 17.047 17.172 18.266 18.266 18.266 18.266 18.266 18.266 18.266 18.266 18.266 18.266 18.266 18.266 15.703 18.266 18.266 18.266 18.266 18.266 18.266 18.266 18.266 18.266 18.266 18.266 18.266 18.266 18.266 18.266 18.266 18.266 18.266 18.266 18.266 18.266 18.266 15.789 18.266 18.266 17.953 15.867 17.047 18.484 18.484 15.703 18.484 18.484 18.484 18.484 18.484 18.484 18.484 18.484 18.156 17.734 17.328 16.938 16.562 16.203 16.156 15.914 15.594 15.289 14.992 14.703 14.430 14.141 13.891 13.641 13.406 13.195 13.023 12.805 7.859 7.734 7.613 7.496 7.383 7.270 7.164 7.059 6.957 6.855 6.762 6.668 6.621 6.621 6.621 6.621 6.621 6.621 6.621 16.531 16.531 16.531 16.531 16.531 16.438 16.250 16.062 15.883 15.703 15.531 15.359 6.875 6.770 8.164 8.078 6.875 6.793 6.762 7.758 7.680 7.605 7.531 7.457 7.387 7.316 7.246 7.180 7.113 7.051 6.984 6.922 6.859 6.801 6.742 6.684 6.625 6.570 6.516 6.461 6.406 6.352 6.301 6.250 6.199 6.148 6.102 6.055
6.523 6.863 6.926 6.992 7.062 7.129 7.199 7.273 7.348 7.422 7.496 7.574 7.656 7.711 7.719 6.340 6.422 7.961 8.047 8.141 8.234 8.328 6.402 8.523 8.625 8.734 8.844 8.953 9.062 9.180 9.297 9.422 9.547 9.672 9.805 9.945 10.086 10.227 10.375 10.523 10.680 6.574 7.102 6.508 11.359 6.820 7.039 6.617 6.762 12.336 12.547 14.445 14.461 14.477 14.492 14.102 14.117 14.297 14.586 14.891 15.211 15.539 15.883 6.906 16.203 6.816 7.000 17.391 17.844 6.945 7.113 18.406 18.406 18.406 18.406 7.660 18.406 18.406 18.406 7.770 7.691 7.598 7.539 7.504 7.492 7.488 7.496 7.508 7.527 7.562 7.598 7.652 7.727 7.840 18.406 18.406 18.406 18.406 18.406 18.406 18.406 18.406 18.406 18.406 18.406 16.000 15.867 15.828 15.836 15.883 15.984 18.406 18.406 18.406 18.406 18.406 18.031 18.203 18.203 18.203 18.203 18.203 18.203 18.203 18.203 18.203 18.203 18.203 18.203 15.703 18.203 18.203 18.203 18.203 18.203 18.203 18.203 18.203 18.203 18.203 18.203 18.203 18.203 18.203 18.203 18.203 18.203 18.203 18.203 18.203 18.203 18.203 15.789 18.203 18.203 18.031 15.867 18.406 18.406 18.406 15.703 18.406 18.406 18.406 18.406 18.406 18.406 18.406 18.406 18.156 17.734 17.328 16.938 16.562 16.203 16.156 15.914 15.594 15.289 14.969 14.695 15.852 14.141 13.953 13.711 13.359 13.133 16.531 16.531 7.859 7.734 7.613 7.496 7.383 7.270 7.164 7.059 6.957 6.855 6.762 6.668 6.621 6.621 6.621 6.621 6.621 6.621 6.621 16.531 16.531 16.531 16.531 16.531 16.438 16.250 16.062 15.883 15.703 15.531 15.359 6.875 6.770 8.164 8.078 6.875 6.793 6.762 7.758 7.680 7.605 7.531 7.457 7.387 7.316 7.246 7.180 7.113 7.051 6.984 6.922 6.859 6.801 6.742 6.684 6.625 6.570 6.516 6.461 6.406 6.352 6.301 6.250 6.199 6.148 6.102 6.055
6.523 6.574 6.586 6.598 6.613 6.625 7.199 7.273 7.348 7.422 7.496 7.574 7.656 7.711 7.719 6.344 6.414 7.961 8.047 8.141 8.234 8.328 6.398 8.523 8.625 8.734 8.844 8.953 9.062 9.172 9.297 9.422 9.547 9.672 9.805 9.945 10.062 10.227 10.375 10.523 10.680 6.574 7.102 6.508 11.359 6.816 11.727 6.621 6.758 12.336 12.547 14.445 14.461 14.477 14.492 14.102 14.117 14.297 14.586 14.891 15.211 15.539 15.883 6.906 16.203 6.824 7.000 17.391 17.844 6.945 7.117 18.484 18.484 18.484 18.484 7.660 18.406 18.484 18.484 18.484 7.691 7.598 7.539 7.504 7.492 7.488 7.496 7.508 7.527 7.562 7.598 7.652 7.727 7.840 18.484 18.484 18.438 18.484 18.484 18.484 18.484 18.484 18.484 18.484 18.484 16.000 15.867 15.828 15.836 15.883 15.984 18.484 18.484 18.484 18.484 18.484 18.484 18.484 15.703 15.703 15.703 15.703 15.703 15.703 15.703 15.703 15.703 15.703 15.703 15.703 15.703 15.703 15.703 15.703 15.703 15.703 15.703 15.703 15.703 15.703 15.703 15.703 15.703 15.703 15.703 15.703 15.703 15.703 15.703 15.703 15.703 15.703 15.703 15.703 15.703 15.703 15.703 18.484 18.484 18.484 15.703 18.484 18.484 18.484 18.484 18.484 18.484 18.484 18.484 18.156 17.734 17.328 16.938 16.562 16.203 16.156 15.891 15.586 16.016 15.930 15.875 15.852 14.211 16.000 16.531 13.359 13.133 16.531 16.531 7.859 7.734 7.613 7.496 7.383 7.270 7.164 7.059 6.957 6.855 6.762 6.668 6.621 6.621 6.621 6.621 6.621 6.621 6.621 16.531 16.531 16.531 16.531 16.531 16.438 16.250 16.062 15.883 15.703 15.531 15.359 6.875 6.770 8.164 8.078 6.875 6.793 6.762 7.758 7.680 7.605 7.531 7.457 7.387 7.316 7.246 7.180 7.113 7.051 6.984 6.922 6.859 6.801 6.742 6.684 6.625 6.570 6.516 6.461 6.406 6.352 6.301 6.250 6.199 6.148 6.102 6.055
6.523 6.863 6.926 6.992 7.062 7.129 7.199 7.273 7.348 7.422 7.496 7.574 7.656 7.711 7.719 6.211 6.410 7.961 8.047 8.141 8.234 6.492 6.398 8.523 8.625 8.734 8.844 6.992 7.004 7.020 7.035 7.047 9.547 9.672 6.992 7.004 7.016 7.031 7.047 7.062 10.680 7.090 7.102 6.512 11.359 6.809 11.727 11.922 6.754 12.336 12.547 14.445 14.461 14.477 14.492 14.102 14.117 14.297 14.586 14.891 15.211 15.539 15.883 6.914 16.203 6.828 7.000 17.391 17.844 6.953 18.484 18.484 18.484 18.484 18.484 7.660 18.406 18.484 18.484 18.484 7.691 7.598 7.539 7.504 7.492 7.488 7.496 7.508 7.527 7.562 7.598 7.652 7.727 7.840 18.484 18.484 18.438 18.484 18.484 18.484 18.484 18.484 18.484 18.484 18.484 16.000 15.867 15.828 15.836 15.883 15.984 18.484 18.484 18.484 18.484 18.484 18.484 18.484 15.750 15.750 15.750 15.750 15.750 15.750 15.750 15.750 15.750 15.750 15.750 15.750 15.750 15.750 15.750 15.750 15.750 15.750 15.750 15.750 15.750 15.750 15.750 15.750 15.750 15.750 15.750 15.750 15.750 15.750 15.750 15.750 15.750 15.750 15.750 15.750 15.750 15.750 15.750 18.484 18.484 18.484 15.703 18.484 18.484 18.484 18.484 18.484 18.484 18.484 18.484 18.156 17.734 17.328 17.000 16.625 16.203 16.156 16.109 16.156 16.016 15.930 15.875 15.852 14.211 16.000 16.531 13.359 13.133 16.531 16.531 7.859 7.734 7.613 7.496 7.383 7.270 7.164 7.059 6.957 6.855 6.762 6.668 6.621 6.621 6.621 6.621 6.621 6.621 6.621 16.531 16.531 16.531 16.531 16.531 16.438 16.250 16.062 15.883 15.703 15.531 15.297 6.875 6.770 8.164 8.078 6.875 6.793 6.762 7.758 7.680 7.605 7.531 7.457 7.387 7.316 7.246 7.180 7.113 7.051 6.984 6.922 6.859 6.801 6.742 6.684 6.625 6.570 6.516 6.461 6.406 6.352 6.301 6.250 6.199 6.148 6.102 6.055
6.523 6.863 6.926 6.992 7.062 7.129 7.199 7.273 7.348 7.422 7.496 7.574 7.656 7.711 7.719 6.211 6.359 7.961 8.047 8.141 8.234 6.480 6.410 8.523 8.625 8.734 8.844 8.953 9.062 9.180 9.297 9.422 9.547 9.672 9.805 9.945 10.086 10.227 10.375 10.523 10.664 7.090 7.102 6.516 11.359 6.801 11.516 11.711 7.297 7.309 7.324 7.340 7.355 14.477 7.285 7.297 7.312 7.328 7.344 7.363 15.211 15.539 15.883 16.188 16.203 6.836 7.000 17.391 17.906 18.328 18.484 18.484 18.484 18.484 18.484 7.660 18.406 18.484 18.484 18.484 7.691 7.598 7.539 7.504 7.492 7.488 7.496 7.508 7.527 7.562 7.598 7.652 7.727 7.840 18.484 18.484 18.438 18.484 18.484 18.484 18.484 18.484 18.484 18.484 18.484 16.000 15.867 15.828 15.836 15.883 15.984 18.484 18.484 18.484 18.484 18.484 18.484 18.484 18.484 18.406 18.484 18.484 18.484 18.484 18.484 18.484 18.484 18.484 18.484 18.484 18.484 18.484 15.742 18.484 15.734 18.484 18.484 18.484 18.484 18.484 18.484 18.484 18.406 18.484 18.484 18.484 18.484 18.484 18.484 18.484 18.484 18.484 18.453 18.484 18.484 18.484 15.867 18.484 18.484 18.484 15.703 18.484 18.484 18.484 18.484 18.484 18.484 18.484 18.484 18.219 17.797 17.328 16.938 16.562 16.203 16.156 16.109 16.156 16.016 15.930 15.875 15.852 14.211 16.000 16.531 13.359 13.133 16.531 16.531 7.859 7.734 7.613 7.496 7.383 7.270 7.164 7.059 6.957 6.855 6.762 6.668 6.621 6.621 6.621 6.621 6.621 6.621 6.621 16.531 16.531 16.531 16.531 16.531 16.438 16.250 16.062 15.883 15.703 15.531 15.328 6.875 6.770 8.164 8.078 6.875 6.793 6.762 7.758 7.680 7.605 7.531 7.457 7.387 7.316 7.246 7.180 7.113 7.051 6.984 6.922 6.859 6.801 6.742 6.684 6.625 6.570 6.516 6.461 6.406 6.352 6.301 6.250 6.199 6.148 6.102 6.055
6.523 6.863 6.926 6.992 7.062 7.129 7.199 7.273 7.348 7.422 7.496 7.566 7.656 7.711 7.719 6.215 6.344 7.961 8.047 8.141 8.234 6.480 8.422 8.523 8.625 8.734 8.844 8.953 9.062 9.180 9.297 9.422 9.547 9.672 9.805 9.945 10.086 10.227 10.375 10.523 10.680 7.090 7.102 6.520 11.359 6.793 11.516 11.719 11.930 12.148 9.430 14.445 14.461 14.477 10.062 10.062 9.406 10.078 10.086 10.086 10.094 15.539 15.883 16.188 16.203 16.578 7.000 17.391 17.844 18.312 18.484 18.484 18.484 18.484 18.484 7.660 18.406 10.070 10.078 10.078 7.691 7.598 7.539 7.504 7.492 7.488 7.496 7.508 7.527 7.562 7.598 7.652 7.727 7.840 18.484 18.484 18.438 18.484 18.484 18.484 18.484 18.484 18.484 18.484 18.484 15.789 15.789 15.789 15.789 15.789 15.789 18.484 18.484 18.484 18.484 18.484 18.484 18.484 18.484 18.406 18.422 18.422 18.422 18.422 18.422 18.422 18.422 18.422 18.422 18.422 18.422 18.422 15.742 18.422 15.734 18.422 18.422 18.422 18.422 18.422 18.422 18.422 18.422 18.422 18.422 18.422 18.422 18.422 18.422 18.422 18.422 18.422 18.422 18.484 18.484 18.484 15.867 18.484 18.484 18.484 15.703 18.484 18.484 18.484 18.484 18.484 18.484 18.484 18.484 18.156 17.734 17.328 16.938 16.562 16.203 16.156 16.109 16.156 16.016 15.930 15.875 15.852 14.211 16.000 16.531 13.359 13.133 16.516 16.516 7.859 7.734 7.613 7.496 7.383 7.270 7.164 7.059 6.957 6.855 6.762 6.668 6.621 6.621 6.621 6.621 6.621 6.621 6.621 16.531 16.531 16.531 16.531 16.531 16.438 16.250 16.062 15.883 15.703 15.531 15.328 6.875 6.770 8.164 8.078 6.875 6.793 6.762 7.758 7.680 7.605 7.531 7.457 7.387 7.316 7.246 7.180 7.113 7.051 6.984 6.922 6.859 6.801 6.742 6.684 6.625 6.570 6.516 6.461 6.406 6.352 6.301 6.250 6.199 6.148 6.102 6.055
6.523 6.863 6.926 6.992 7.062 7.129 7.199 7.273 7.348 7.422 7.496 7.574 6.785 6.801 6.812 6.223 6.344 6.852 6.785 6.797 6.809 6.383 6.832 6.848 6.859 6.875 8.844 8.953 9.062 9.180 9.297 9.422 9.547 9.672 9.805 9.945 10.086 10.227 10.375 10.523 10.680 7.090 6.598 6.531 6.727 6.785 11.516 11.719 11.930 12.148 9.445 14.445 14.461 14.477 10.039 10.047 9.406 10.055 10.062 10.070 10.070 15.539 15.883 16.188 16.203 16.641 7.000 17.391 17.844 7.086 18.484 18.484 18.484 18.484 18.484 7.660 18.406 10.047 10.055 10.055 7.691 7.598 7.539 7.504 7.492 7.488 7.496 7.508 7.527 7.562 7.598 7.652 7.156 7.156 7.156 18.484 7.371 7.566 18.484 18.484 18.484 18.484 18.484 18.484 18.484 15.789 15.789 15.789 15.789 15.789 15.789 7.125 7.125 7.125 7.129 7.359 18.484 18.484 18.484 18.406 18.438 18.500 18.500 18.500 18.500 18.500 18.500 18.500 18.500 18.500 7.371 7.125 7.125 7.125 7.125 18.500 18.500 18.500 18.500 18.500 18.500 18.500 18.500 18.500 18.500 18.500 18.500 18.500 18.500 7.457 18.500 7.125 7.125 7.125 7.125 18.484 15.867 18.484 18.484 18.484 15.703 18.484 18.484 18.484 18.484 18.484 18.484 7.566 7.402 18.156 7.141 7.125 7.125 7.125 16.203 16.156 16.109 16.156 16.016 15.930 15.875 15.852 14.211 16.000 16.531 7.602 7.480 7.371 7.555 7.176 7.156 7.156 7.156 7.383 7.270 7.164 7.059 6.957 6.855 6.762 6.668 6.621 6.621 6.621 6.621 6.621 6.621 6.621 16.531 16.531 16.531 16.531 16.531 16.438 16.250 16.062 15.883 15.703 15.531 15.328 6.875 6.770 8.164 8.078 6.875 6.793 6.762 7.758 7.680 7.605 7.531 7.457 7.387 7.316 7.246 7.180 7.113 7.051 6.984 6.922 6.859 6.801 6.742 6.684 6.625 6.570 6.516 6.461 6.406 6.352 6.301 6.250 6.199 6.148 6.102 6.055
6.523 6.863 6.926 5.879 5.891 5.898 5.910 5.922 5.930 5.941 5.953 5.965 5.973 5.984 5.996 6.008 6.020 7.961 6.250 8.141 8.234 6.379 8.422 8.523 8.625 8.734 8.844 8.953 9.062 9.180 9.297 9.422 9.547 9.672 9.805 9.945 10.086 10.227 10.375 10.523 10.680 7.090 6.598 7.121 6.719 6.773 6.617 6.730 7.188 7.203 7.223 7.238 14.461 14.477 10.023 10.023 9.414 10.039 10.047 10.047 10.055 15.539 15.883 16.188 6.930 16.578 7.000 17.391 17.906 7.082 18.484 18.484 18.484 18.484 18.484 7.660 18.406 10.031 10.031 10.031 7.691 7.598 7.539 7.504 7.492 7.488 7.496 7.508 7.527 7.562 7.598 7.652 7.156 7.156 7.156 18.484 18.438 18.484 18.484 8.016 18.484 18.484 18.484 18.484 18.484 15.789 15.789 15.789 15.789 15.789 15.789 7.125 7.125 7.125 7.129 18.484 18.484 18.484 18.484 18.406 18.438 18.500 18.500 18.500 18.500 18.500 18.500 18.500 18.500 18.500 18.500 7.125 7.125 7.125 7.125 18.500 18.500 18.500 18.500 18.500 18.500 18.500 18.500 18.500 18.500 18.500 18.500 8.156 18.500 8.289 18.500 7.125 7.125 7.125 7.125 18.484 15.867 18.484 18.484 18.484 15.703 18.484 18.484 18.484 8.172 7.906 8.281 18.484 18.484 18.219 7.141 7.125 7.125 7.125 16.203 16.156 16.109 16.156 16.016 15.930 15.875 8.141 7.977 16.000 16.531 13.359 13.133 16.516 16.516 7.176 7.156 7.156 7.156 7.383 7.270 7.164 7.059 6.957 6.855 6.762 6.668 6.621 6.621 6.621 6.621 6.621 6.621 6.621 6.762 6.762 6.762 6.762 6.762 6.762 6.762 6.762 6.762 6.762 6.762 6.762 6.762 6.762 8.164 8.078 6.883 6.875 6.770 6.762 6.762 6.762 6.762 6.762 6.762 6.762 6.762 6.762 6.762 6.762 6.762 6.762 6.859 6.801 6.742 6.684 6.625 6.570 6.516 6.461 6.406 6.352 6.301 6.250 6.199 6.148 6.102 6.055
6.523 6.578 6.926 5.883 5.895 5.902 5.914 5.926 5.934 5.945 5.957 5.969 5.977 5.988 6.000 6.012 6.020 6.031 6.043 6.055 6.062 6.074 6.113 6.203 6.293 6.387 6.484 6.590 9.062 9.180 9.297 9.422 9.547 9.672 6.203 6.219 6.230 6.246 6.258 6.273 6.289 6.301 6.316 6.332 6.344 6.359 6.375 6.391 6.402 6.418 6.434 6.461 14.461 9.992 10.000 10.008 10.016 10.016 10.023 6.590 10.031 15.281 15.555 16.188 6.930 16.578 7.000 17.391 6.953 18.312 18.484 18.484 18.484 18.484 18.484 7.660 18.406 10.016 10.016 10.016 7.691 7.598 7.539 7.504 7.492 7.488 7.496 7.508 7.527 7.562 7.598 7.652 7.156 7.156 7.156 18.484 18.438 18.484 8.672 8.672 8.672 18.484 18.484 18.484 18.484 16.000 15.867 15.828 15.836 15.883 15.984 7.125 7.125 7.125 7.129 8.641 8.633 18.484 18.484 18.406 18.438 18.500 18.500 18.500 18.500 18.500 18.500 18.500 18.500 18.500 8.617 7.125 7.125 7.125 7.125 18.500 18.500 18.500 18.500 18.500 18.500 18.500 18.500 18.500 18.500 18.500 18.500 8.633 8.641 8.641 18.500 7.125 7.125 7.125 7.125 18.484 15.867 18.484 18.484 18.484 15.703 18.484 18.484 8.633 8.641 7.906 18.484 18.484 18.484 18.156 7.141 7.125 7.125 7.125 16.203 16.156 16.109 16.156 16.016 8.672 8.672 8.672 14.211 16.000 16.531 13.359 13.133 7.957 16.516 7.176 7.156 7.156 7.156 7.383 7.270 7.164 7.059 6.957 6.855 6.762 6.668 6.621 6.621 6.621 6.621 6.621 6.621 6.621 16.531 16.531 16.531 16.531 16.531 16.438 16.250 16.062 15.883 15.703 15.531 15.328 15.164 15.008 8.164 8.078 8.000 7.918 7.836 7.758 7.680 7.605 7.531 7.457 7.387 7.316 7.246 7.180 7.113 7.051 6.984 6.922 6.859 6.801 6.742 6.684 6.625 6.570 6.516 6.461 6.406 6.352 6.301 6.250 6.199 6.148 6.102 6.055
6.523 6.863 6.926 5.887 5.898 5.906 5.918 5.930 5.938 5.949 5.961 5.973 5.980 5.992 6.004 6.016 6.023 6.035 6.047 6.059 6.066 6.078 6.121 6.211 6.305 6.398 6.496 6.598 6.699 9.180 9.297 9.422 9.547 9.672 6.207 6.223 6.234 6.250 6.266 6.277 6.293 6.305 6.320 6.336 6.352 6.363 6.379 6.395 6.410 6.422 6.438 6.484 6.703 6.938 9.711 9.711 9.711 9.500 9.711 6.590 6.605 6.621 6.637 6.652 6.668 6.684 6.699 6.715 6.730 6.746 6.762 6.777 6.797 6.812 6.828 7.660 9.711 9.711 9.711 9.711 7.691 7.598 7.539 7.504 7.492 7.488 7.496 7.508 7.527 7.562 7.598 7.652 7.156 7.156 7.156 18.484 18.438 18.484 8.672 8.672 8.672 18.484 18.484 18.484 18.484 15.789 15.789 15.789 15.789 15.789 15.789 7.125 7.125 7.125 7.129 8.641 8.633 18.484 18.484 18.406 18.438 18.500 18.500 18.500 18.500 18.500 18.500 18.500 18.500 18.500 8.617 7.125 7.125 7.125 7.125 18.500 18.500 18.500 18.500 18.500 18.500 18.500 18.500 18.500 18.500 18.500 18.500 8.633 8.641 8.641 18.500 7.125 7.125 7.125 7.125 18.484 15.867 18.484 18.484 18.484 15.703 18.484 18.484 8.633 8.641 7.906 18.484 18.484 18.484 18.156 7.141 7.125 7.125 7.125 16.203 16.156 16.109 16.156 16.016 8.672 8.672 8.672 14.211 16.000 16.531 13.359 13.133 7.957 16.516 7.176 7.156 7.156 7.156 7.383 7.270 7.164 7.059 6.957 6.855 6.762 6.668 6.621 6.621 6.621 6.621 6.621 6.621 6.621 16.531 16.531 16.531 16.531 16.531 16.438 16.250 16.062 15.883 15.703 15.531 15.328 15.164 15.008 8.164 8.078 8.000 7.918 7.836 7.758 7.680 7.605 7.531 7.457 7.387 7.316 7.246 7.180 7.113 7.051 6.984 6.922 6.859 6.801 6.742 6.684 6.625 6.570 6.516 6.461 6.406 6.352 6.301 6.250 6.199 6.148 6.102 6.055
6.523 6.863 6.926 5.891 5.902 5.910 5.922 5.934 5.941 5.953 5.965 5.977 5.984 5.996 6.008 6.020 6.027 6.039 6.051 6.062 6.074 6.082 6.133 6.223 6.312 6.410 6.508 6.609 6.711 9.180 9.297 9.422 9.547 9.672 6.211 6.227 6.238 6.254 6.270 6.281 6.297 6.312 6.324 6.340 6.355 6.367 6.383 6.398 6.414 6.430 6.441 6.508 6.727 6.965 10.078 10.211 10.359 9.492 10.383 6.598 6.613 6.625 6.641 6.656 6.672 6.688 6.703 6.719 6.734 6.750 6.770 6.785 6.801 6.816 6.832 7.660 7.723 7.738 7.680 7.695 7.691 7.598 7.539 7.504 7.492 7.488 7.496 7.508 7.527 7.562 7.598 7.652 7.156 7.156 7.156 18.484 18.438 18.484 8.672 8.672 8.672 18.484 18.484 18.484 18.484 15.789 15.789 15.789 15.789 15.789 15.789 7.125 7.125 7.125 7.129 8.641 8.633 18.484 18.484 18.406 18.438 18.500 18.500 18.500 18.500 18.500 18.500 18.500 18.500 18.500 8.617 7.125 7.125 7.125 7.125 18.500 18.500 18.500 18.500 18.500 18.500 18.500 18.500 18.500 18.500 18.500 18.500 8.633 8.641 8.641 18.500 7.125 7.125 7.125 7.125 18.484 15.867 18.484 18.484 18.484 15.703 18.484 18.484 8.633 8.641 7.906 18.484 18.484 18.484 18.156 7.141 7.125 7.125 7.125 16.203 16.156 16.109 16.156 16.016 8.672 8.672 8.672 14.211 16.000 16.531 13.359 13.133 7.957 16.516 7.176 7.156 7.156 7.156 7.383 7.270 7.164 7.059 6.957 6.855 6.762 6.668 6.621 6.621 6.621 6.621 6.621 6.621 6.621 16.531 16.531 16.531 16.531 16.531 16.438 16.250 16.062 15.883 15.703 15.531 15.328 15.164 15.008 8.164 8.078 8.000 7.918 7.836 7.758 7.680 7.605 7.531 7.457 7.387 7.316 7.246 7.180 7.113 7.051 6.984 6.922 6.859 6.801 6.742 6.684 6.625 6.570 6.516 6.461 6.406 6.352 6.301 6.250 6.199 6.148 6.102 6.055
6.523 6.863 6.926 5.895 5.906 5.914 5.926 5.938 5.949 5.957 5.969 5.980 5.988 6.000 6.012 6.023 6.031 6.043 6.055 6.066 6.078 6.086 6.141 6.230 6.324 6.418 6.516 6.617 6.723 9.180 9.297 9.422 9.547 9.672 6.215 6.230 6.246 6.258 6.273 6.285 6.301 6.316 6.328 6.344 6.359 6.375 6.387 6.402 6.418 6.434 6.449 6.531 6.754 6.988 7.281 7.297 7.312 7.328 7.344 6.602 6.617 6.633 6.648 6.664 6.680 6.695 6.711 6.727 6.742 6.758 6.773 6.789 6.805 6.820 6.867 7.660 10.383 10.383 10.383 10.383 7.691 7.598 7.539 7.504 7.492 7.488 7.496 7.508 7.527 7.562 7.598 7.652 7.156 7.156 7.156 9.492 9.453 9.414 8.672 8.672 8.672 9.336 9.445 9.562 18.484 15.789 15.789 15.789 15.789 15.789 15.789 7.125 7.125 7.125 7.129 8.641 8.633 18.484 18.484 18.406 18.438 18.500 18.500 18.500 18.500 18.500 18.500 18.500 18.500 18.500 8.617 7.125 7.125 7.125 7.125 18.500 18.500 18.500 18.500 18.500 18.500 18.500 18.500 18.500 18.500 18.500 18.500 8.633 8.641 8.641 18.500 7.125 7.125 7.125 7.125 18.484 15.867 18.484 18.484 18.484 15.703 18.484 18.484 8.633 8.641 7.906 18.484 18.484 18.484 18.156 7.141 7.125 7.125 7.125 16.203 16.156 16.109 16.156 16.016 8.672 8.672 8.672 14.211 16.000 16.531 13.359 13.133 7.957 16.516 7.176 7.156 7.156 7.156 7.383 7.270 7.164 7.059 6.957 6.855 6.762 6.668 6.621 6.621 6.621 6.621 6.621 6.621 6.621 16.531 16.531 16.531 16.531 16.531 16.438 16.250 16.062 15.883 15.703 15.531 15.328 15.164 15.008 8.164 8.078 8.000 7.918 7.836 7.758 7.680 7.605 7.531 7.457 7.387 7.316 7.246 7.180 7.113 7.051 6.984 6.922 6.859 6.801 6.742 6.684 6.625 6.570 6.516 6.461 6.406 6.352 6.301 6.250 6.199 6.148 6.102 6.055
6.523 6.863 6.656 5.898 5.910 5.918 5.930 5.941 5.953 5.961 5.973 5.984 5.992 6.004 6.016 6.027 6.035 6.047 6.059 6.070 6.082 6.090 6.152 6.242 6.336 6.430 6.527 6.629 6.734 9.180 9.297 9.422 9.547 9.672 6.219 6.234 6.250 6.262 6.277 6.293 6.305 6.320 6.336 6.348 6.363 6.379 6.395 6.406 6.422 6.438 6.453 6.555 6.777 7.016 7.383 7.398 7.414 7.332 7.348 6.605 6.621 6.637 6.652 6.668 6.684 6.699 6.715 6.730 6.746 6.762 6.777 6.793 6.809 6.828 6.953 7.660 9.602 10.383 9.414 10.383 7.691 7.598 7.539 7.504 7.492 7.488 7.496 7.508 7.527 7.562 7.598 7.652 7.156 7.156 7.156 9.516 9.477 9.438 8.672 8.672 8.672 9.391 9.500 9.609 9.727 15.789 15.789 15.789 15.789 15.789 15.789 7.125 7.125 7.125 7.129 8.641 8.633 18.484 18.484 18.406 18.438 18.500 18.500 18.500 18.500 18.500 18.500 18.500 18.500 18.500 8.617 7.125 7.125 7.125 7.125 18.500 18.500 18.500 18.500 18.500 18.500 18.500 18.500 18.500 18.500 18.500 18.500 8.633 8.641 8.641 18.500 7.125 7.125 7.125 7.125 18.484 15.867 18.484 18.484 18.484 15.703 18.484 18.484 8.633 8.641 7.906 18.484 18.484 18.484 18.156 7.141 7.125 7.125 7.125 16.203 16.156 16.109 16.156 16.016 8.672 8.672 8.672 14.211 16.000 16.531 13.359 13.133 7.957 16.516 7.176 7.156 7.156 7.156 7.383 7.270 7.164 7.059 6.957 6.855 6.762 6.668 6.621 6.621 6.621 6.621 6.621 6.621 6.621 16.531 16.531 16.531 16.531 16.531 16.438 16.250 16.062 15.883 15.703 15.531 15.328 15.164 15.008 8.164 8.078 8.000 7.918 7.836 7.758 7.680 7.605 7.531 7.457 7.387 7.316 7.246 7.180 7.113 7.051 6.984 6.922 6.859 6.801 6.742 6.684 6.625 6.570 6.516 6.461 6.406 6.352 6.301 6.250 6.199 6.148 6.102 6.055
6.523 6.863 6.926 6.992 5.914 5.922 5.934 5.945 5.957 5.965 5.977 5.988 5.996 6.008 6.020 6.031 6.039 6.051 6.062 6.074 6.086 6.094 6.160 6.250 6.344 6.441 6.539 6.641 6.746 9.180 9.297 9.422 9.547 9.672 9.805 6.238 6.254 6.266 6.281 6.297 6.309 6.324 6.340 6.352 6.367 6.383 6.398 6.410 6.426 6.441 6.457 6.578 6.805 7.043 7.383 7.398 7.414 7.426 7.441 6.609 6.625 6.641 6.656 6.672 6.688 6.703 6.719 6.734 6.750 6.766 6.781 6.801 6.816 6.832 7.039 7.660 9.445 10.383 9.414 10.383 7.691 7.598 7.539 7.504 7.492 7.488 7.496 7.508 7.527 7.562 7.598 7.652 7.156 7.156 7.156 9.516 9.477 9.438 8.672 8.672 8.672 9.391 9.500 9.602 9.727 16.000 15.867 15.828 15.836 15.883 15.984 7.125 7.125 7.125 7.129 8.641 8.633 18.484 18.484 18.406 18.438 18.500 18.500 18.500 18.500 18.500 18.500 18.500 18.500 18.500 8.617 7.125 7.125 7.125 7.125 18.500 18.500 18.500 18.500 18.500 18.500 18.500 18.500 18.500 18.500 18.500 18.500 8.633 8.641 8.641 18.500 7.125 7.125 7.125 7.125 18.484 15.867 18.484 18.484 18.484 15.703 18.484 18.484 8.633 8.641 7.906 18.484 18.484 18.484 18.156 7.141 7.125 7.125 7.125 16.203 16.156 16.109 16.156 16.016 8.672 8.672 8.672 14.070 13.828 13.836 16.516 16.516 7.957 16.516 7.176 7.156 7.156 7.156 7.383 7.270 7.164 7.059 6.957 6.855 6.762 6.668 6.621 6.621 6.621 6.621 6.621 6.621 6.621 16.531 16.531 16.531 16.531 16.531 16.438 16.250 16.062 15.883 15.703 15.531 15.328 15.164 15.008 8.164 8.078 8.000 7.918 7.836 7.758 7.680 7.605 7.531 7.457 7.387 7.316 7.246 7.180 7.113 7.051 6.984 6.922 6.859 6.801 6.742 6.684 6.625 6.570 6.516 6.461 6.406 6.352 6.301 6.250 6.199 6.148 6.102 6.055
6.523 6.863 6.926 6.992 5.918 5.926 5.938 5.949 5.961 5.969 5.980 5.992 6.000 6.012 6.023 6.035 6.047 6.055 6.066 6.078 6.090 6.102 6.172 6.262 6.355 6.449 6.551 6.652 6.758 6.926 6.941 6.953 9.547 9.672 9.805 6.242 6.258 6.270 6.285 6.301 6.312 6.328 6.344 6.359 6.371 6.387 6.402 6.418 6.430 6.445 6.461 6.602 6.828 7.074 9.453 9.484 9.492 9.555 9.672 6.617 6.629 6.645 6.660 6.676 6.691 6.707 6.723 6.738 6.754 6.773 6.789 6.805 6.820 6.836 7.129 7.625 7.641 7.660 7.676 7.691 7.691 7.598 7.539 7.504 7.492 7.488 7.496 7.508 7.527 7.562 7.598 7.652 7.156 7.156 7.156 9.539 9.492 9.453 8.672 8.672 8.672 9.391 9.500 9.602 9.727 16.000 15.867 15.828 15.836 15.883 15.984 7.125 7.125 7.125 7.129 8.641 8.633 18.484 18.484 18.406 18.438 18.500 18.500 18.500 18.500 18.500 18.500 18.500 18.500 18.500 8.617 7.125 7.125 7.125 7.125 18.500 18.500 18.500 18.500 18.500 18.500 18.500 18.500 18.500 18.500 18.500 18.500 8.633 8.641 8.641 18.500 7.125 7.125 7.125 7.125 18.484 15.867 18.484 18.484 18.484 15.703 18.484 18.484 8.633 8.641 7.906 18.484 18.484 18.484 18.156 7.141 7.125 7.125 7.125 16.203 16.156 16.109 16.156 16.016 8.672 8.672 8.672 14.211 16.000 16.531 16.516 16.516 7.957 16.516 7.176 7.156 7.156 7.156 7.383 7.270 7.164 7.059 6.957 6.855 6.762 6.668 6.621 6.621 6.621 6.621 6.621 6.621 6.621 16.531 16.531 16.531 16.531 16.531 16.438 16.250 16.062 15.883 15.703 15.531 15.328 15.164 15.008 8.164 8.078 8.000 7.918 7.836 7.758 7.680 7.605 7.531 7.457 7.387 7.316 7.246 7.180 7.113 7.051 6.984 6.922 6.859 6.801 6.742 6.684 6.625 6.570 6.516 6.461 6.406 6.352 6.301 6.250 6.199 6.148 6.102 6.055
6.523 6.578 6.590 6.602 5.922 5.930 5.941 5.953 5.965 5.973 5.984 5.996 6.004 6.016 6.027 6.039 6.051 6.059 6.070 6.082 6.094 6.105 6.180 6.270 6.363 6.461 6.562 6.664 6.914 6.926 9.297 9.422 9.547 9.672 9.805 6.246 6.262 6.277 6.289 6.305 6.320 6.332 6.348 6.363 6.375 6.391 6.406 6.422 6.438 6.449 6.465 6.629 6.855 7.102 9.820 9.648 10.359 10.383 9.703 10.383 6.637 6.652 6.668 6.684 6.699 6.715 6.730 6.746 6.762 6.777 6.793 6.809 6.824 6.840 7.223 7.660 10.383 9.695 10.383 10.383 7.691 7.598 7.539 7.504 7.492 7.488 7.496 7.508 7.527 7.562 7.598 7.652 7.156 7.156 7.156 9.516 9.477 9.438 8.672 8.672 8.672 9.391 9.500 9.602 9.727 16.000 15.867 15.828 15.836 15.883 15.984 7.125 7.125 7.125 7.129 8.641 8.633 18.484 18.484 18.406 18.500 18.500 18.500 18.500 18.500 18.500 18.500 18.500 18.500 18.500 8.617 7.125 7.125 7.125 7.125 18.500 18.500 18.500 18.500 18.500 18.500 18.500 18.500 18.500 18.500 18.500 18.500 8.633 8.641 8.641 18.500 7.125 7.125 7.125 7.125 18.484 15.867 18.484 18.484 18.484 15.703 18.484 18.484 8.633 8.641 7.906 18.484 18.484 18.484 18.156 7.141 7.125 7.125 7.125 16.203 16.156 16.109 16.156 16.016 8.672 8.672 8.672 14.211 16.000 16.531 16.516 16.516 7.957 16.516 7.176 7.156 7.156 7.156 7.383 7.270 7.164 7.059 6.957 6.855 6.762 6.668 6.621 6.621 6.621 6.621 6.621 6.621 6.621 16.531 16.531 16.531 16.531 16.531 16.438 16.250 16.062 15.883 15.703 15.531 15.328 15.164 15.008 8.164 8.078 8.000 7.918 7.836 7.758 7.680 7.605 7.531 7.457 7.387 7.316 7.246 7.180 7.113 7.051 6.984 6.922 6.859 6.801 6.742 6.684 6.625 6.570 6.516 6.461 6.406 6.352 6.301 6.250 6.199 6.148 6.102 6.055
6.523 6.645 6.656 6.668 5.926 5.934 5.945 5.957 5.969 5.977 5.988 6.000 6.012 6.020 6.031 6.043 6.055 6.062 6.074 6.086 6.098 6.109 6.191 6.281 6.375 6.473 6.574 6.676 6.910 6.926 6.938 6.953 6.965 6.977 6.992 6.250 6.266 6.281 6.293 6.309 6.324 6.336 6.352 6.367 6.383 6.395 6.410 6.426 6.441 6.457 6.473 6.652 6.883 9.938 10.078 9.648 10.359 10.383 10.383 10.383 6.641 6.656 6.672 6.688 6.703 6.719 6.734 6.750 6.766 6.781 6.797 6.812 6.832 6.848 7.316 7.660 10.383 10.383 10.383 10.383 7.691 7.598 7.539 7.504 7.492 7.488 7.496 7.508 7.527 7.562 7.598 7.652 7.156 7.156 7.156 9.516 9.477 9.438 8.672 8.672 8.672 9.391 9.500 9.602 9.727 16.000 15.867 15.828 15.836 15.883 15.984 7.125 7.125 7.125 7.129 8.641 8.633 18.484 18.484 18.406 18.500 18.500 18.500 18.500 18.500 18.500 18.500 18.500 18.500 18.500 8.617 7.125 7.125 7.125 7.125 18.500 18.500 18.500 18.500 18.500 18.500 18.500 18.500 18.500 18.500 18.500 18.500 8.633 8.641 8.641 18.500 7.125 7.125 7.125 7.125 18.484 15.867 18.484 18.484 18.484 15.703 18.484 18.484 8.633 8.641 7.906 18.484 18.484 18.484 18.156 7.141 7.125 7.125 7.125 16.203 16.156 16.109 16.156 16.016 8.672 8.672 8.672 14.211 16.000 16.531 16.516 16.516 7.957 16.516 7.176 7.156 7.156 7.156 7.383 7.270 7.164 7.059 6.957 6.855 6.762 6.668 6.621 6.621 6.621 6.621 6.621 6.621 6.621 16.531 16.531 16.531 16.531 16.531 16.438 16.250 16.062 15.883 15.703 15.531 15.328 15.164 15.008 8.164 8.078 8.000 7.918 7.836 7.758 7.680 7.605 7.531 7.457 7.387 7.316 7.246 7.180 7.113 7.051 6.984 6.922 6.859 6.801 6.742 6.684 6.625 6.570 6.516 6.461 6.406 6.352 6.301 6.250 6.199 6.148 6.102 6.055
